-1112.000000 204.059071 1439.561577
-1112.000000 202.059315 1439.592823
-1112.000000 200.059559 1439.624069
-1112.000000 198.059804 1439.655316
-1112.000000 196.060048 1439.686562
-1112.000000 194.060292 1439.717808
-1112.000000 192.060536 1439.749054
-1112.000000 190.060780 1439.780300
-1112.000000 188.061024 1439.811547
-1112.000000 186.061268 1439.842793
-1112.000000 184.061512 1439.874039
-1112.000000 182.061756 1439.905285
-1112.000000 180.062000 1439.936531
-1112.000000 178.062244 1439.967777
-1112.000000 176.062489 1439.999024
-1112.000000 174.062733 1440.030270
-1112.000000 172.062977 1440.061516
-1112.000000 170.063221 1440.092762
-1112.000000 168.063465 1440.124008
-1112.000000 166.063709 1440.155255
-1112.000000 164.063953 1440.186501
-1112.000000 162.064197 1440.217747
-1112.000000 160.064441 1440.248993
-1112.000000 158.064685 1440.280239
-1112.000000 156.064930 1440.311485
-1112.000000 154.065174 1440.342732
-1112.000000 152.065418 1440.373978
-1112.000000 150.065662 1440.405224
-1112.000000 148.065906 1440.436470
-1112.000000 146.066150 1440.467716
-1112.000000 144.066394 1440.498963
-1112.000000 142.066638 1440.530209
-1112.000000 140.066882 1440.561455
-1112.000000 138.067126 1440.592701
-1112.000000 136.067370 1440.623947
-1112.000000 134.067615 1440.655194
-1112.000000 132.067859 1440.686440
-1112.000000 130.068103 1440.717686
-1112.000000 128.068347 1440.748932
-1112.000000 126.068591 1440.780178
-1112.000000 124.068835 1440.811424
-1112.000000 122.069079 1440.842671
-1112.000000 120.069323 1440.873917
-1112.000000 118.069567 1440.905163
-1112.000000 116.069811 1440.936409
-1112.000000 114.070056 1440.967655
-1112.000000 112.070300 1440.998902
-1112.000000 110.070544 1441.030148
-1112.000000 108.070788 1441.061394
-1112.000000 106.071032 1441.092640
-1112.000000 104.071276 1441.123886
-1112.000000 102.071520 1441.155132
-1112.000000 100.071764 1441.186379
-1112.000000 98.072008 1441.217625
-1112.000000 96.072252 1441.248871
-1112.000000 94.072496 1441.280117
-1112.000000 92.072741 1441.311363
-1112.000000 90.072985 1441.342610
-1112.000000 88.073229 1441.373856
-1112.000000 86.073473 1441.405102
-1112.000000 84.073717 1441.436348
-1112.000000 82.073961 1441.467594
-1112.000000 80.074205 1441.498841
-1112.000000 78.074449 1441.530087
-1112.000000 76.074693 1441.561333
-1112.000000 74.074937 1441.592579
-1112.000000 72.075182 1441.623825
-1112.000000 70.075426 1441.655071
-1112.000000 68.075670 1441.686318
-1112.000000 66.075914 1441.717564
-1112.000000 64.076158 1441.748810
-1112.000000 62.076402 1441.780056
-1112.000000 60.076646 1441.811302
-1112.000000 58.076890 1441.842549
-1112.000000 56.077134 1441.873795
-1112.000000 54.077378 1441.905041
-1112.000000 52.077623 1441.936287
-1112.000000 50.077867 1441.967533
-1112.000000 48.078111 1441.998780
-1112.000000 46.078355 1442.030026
-1112.000000 44.078599 1442.061272
-1112.000000 42.078843 1442.092518
-1112.000000 40.079087 1442.123764
-1112.000000 38.079331 1442.155010
-1112.000000 36.079575 1442.186257
-1112.000000 34.079819 1442.217503
-1112.000000 32.080063 1442.248749
-1112.000000 30.080308 1442.279995
-1112.000000 28.080552 1442.311241
-1112.000000 26.080796 1442.342488
-1112.000000 24.081040 1442.373734
-1112.000000 22.081284 1442.404980
-1112.000000 20.081528 1442.436226
-1112.000000 18.081772 1442.467472
-1112.000000 16.082016 1442.498718
-1112.000000 14.082260 1442.529965
-1112.000000 12.082504 1442.561211
-1112.000000 10.082749 1442.592457
-1112.000000 8.082993 1442.623703
-1112.000000 6.083237 1442.654949
-1112.000000 4.083481 1442.686196
-1112.000000 2.083725 1442.717442
-1112.000000 0.083969 1442.748688
-1112.000000 -1.915787 1442.779934
-1112.000000 -3.915543 1442.811180
-1112.000000 -5.915299 1442.842427
-1112.000000 -7.915055 1442.873673
-1112.000000 -9.914811 1442.904919
-1112.000000 -11.914566 1442.936165
-1112.000000 -13.914322 1442.967411
-1112.000000 -15.914078 1442.998657
-1112.000000 -17.913834 1443.029904
-1112.000000 -19.913590 1443.061150
-1112.000000 -21.913346 1443.092396
-1112.000000 -23.913102 1443.123642
-1112.000000 -25.912858 1443.154888
-1112.000000 -27.912614 1443.186135
-1112.000000 -29.912370 1443.217381
-1112.000000 -31.912125 1443.248627
-1112.000000 -33.911881 1443.279873
-1112.000000 -35.911637 1443.311119
-1112.000000 -37.911393 1443.342366
-1112.000000 -39.911149 1443.373612
-1112.000000 -41.910905 1443.404858
-1112.000000 -43.910661 1443.436104
-1112.000000 -45.910417 1443.467350
-1112.000000 -47.910173 1443.498596
-1112.000000 -49.909929 1443.529843
-1112.000000 -51.909685 1443.561089
-1112.000000 -53.909440 1443.592335
-1112.000000 -55.909196 1443.623581
-1112.000000 -57.908952 1443.654827
-1112.000000 -59.908708 1443.686074
-1112.000000 -61.908464 1443.717320
-1112.000000 -63.908220 1443.748566
-1112.000000 -65.907976 1443.779812
-1112.000000 -67.907732 1443.811058
-1112.000000 -69.907488 1443.842304
-1112.000000 -71.907244 1443.873551
-1112.000000 -73.906999 1443.904797
-1112.000000 -75.906755 1443.936043
-1112.000000 -77.906511 1443.967289
-1112.000000 -80.000000 1444.000000
-1112.000000 -81.999514 1444.044107
-1112.000000 -83.999027 1444.088214
-1112.000000 -85.998541 1444.132321
-1112.000000 -87.998054 1444.176428
-1112.000000 -89.997568 1444.220535
-1112.000000 -91.997082 1444.264642
-1112.000000 -93.996595 1444.308748
-1112.000000 -95.996109 1444.352855
-1112.000000 -97.995622 1444.396962
-1112.000000 -99.995136 1444.441069
-1112.000000 -101.994649 1444.485176
-1112.000000 -103.994163 1444.529283
-1112.000000 -105.993677 1444.573390
-1112.000000 -107.993190 1444.617497
-1112.000000 -109.992704 1444.661604
-1112.000000 -111.992217 1444.705711
-1112.000000 -113.991731 1444.749818
-1112.000000 -115.991245 1444.793925
-1112.000000 -117.990758 1444.838031
-1112.000000 -119.990272 1444.882138
-1112.000000 -121.989785 1444.926245
-1112.000000 -123.989299 1444.970352
-1112.000000 -125.988812 1445.014459
-1112.000000 -127.988326 1445.058566
-1112.000000 -129.987840 1445.102673
-1112.000000 -131.987353 1445.146780
-1112.000000 -133.986867 1445.190887
-1112.000000 -135.986380 1445.234994
-1112.000000 -137.985894 1445.279101
-1112.000000 -139.985408 1445.323208
-1112.000000 -141.984921 1445.367314
-1112.000000 -143.984435 1445.411421
-1112.000000 -145.983948 1445.455528
-1112.000000 -147.983462 1445.499635
-1112.000000 -149.982976 1445.543742
-1112.000000 -151.982489 1445.587849
-1112.000000 -153.982003 1445.631956
-1112.000000 -155.981516 1445.676063
-1112.000000 -157.981030 1445.720170
-1112.000000 -159.980543 1445.764277
-1112.000000 -161.980057 1445.808384
-1112.000000 -163.979571 1445.852491
-1112.000000 -165.979084 1445.896597
-1112.000000 -167.978598 1445.940704
-1112.000000 -169.978111 1445.984811
-1112.000000 -171.977625 1446.028918
-1112.000000 -173.977139 1446.073025
-1112.000000 -175.976652 1446.117132
-1112.000000 -177.976166 1446.161239
-1112.000000 -179.975679 1446.205346
-1112.000000 -181.975193 1446.249453
-1112.000000 -183.974706 1446.293560
-1112.000000 -185.974220 1446.337667
-1112.000000 -187.973734 1446.381774
-1112.000000 -189.973247 1446.425880
-1112.000000 -191.972761 1446.469987
-1112.000000 -193.972274 1446.514094
-1112.000000 -195.971788 1446.558201
-1112.000000 -197.971302 1446.602308
-1112.000000 -199.970815 1446.646415
-1112.000000 -201.970329 1446.690522
-1112.000000 -203.969842 1446.734629
-1112.000000 -205.969356 1446.778736
-1112.000000 -207.968869 1446.822843
-1112.000000 -209.968383 1446.866950
-1112.000000 -211.967897 1446.911057
-1112.000000 -213.967410 1446.955163
-1112.000000 -215.966924 1446.999270
-1112.000000 -217.966437 1447.043377
-1112.000000 -219.965951 1447.087484
-1112.000000 -221.965465 1447.131591
-1112.000000 -223.964978 1447.175698
-1112.000000 -225.964492 1447.219805
-1112.000000 -227.964005 1447.263912
-1112.000000 -229.963519 1447.308019
-1112.000000 -231.963033 1447.352126
-1112.000000 -233.962546 1447.396233
-1112.000000 -235.962060 1447.440340
-1112.000000 -237.961573 1447.484446
-1112.000000 -239.961087 1447.528553
-1112.000000 -241.960600 1447.572660
-1112.000000 -243.960114 1447.616767
-1112.000000 -245.959628 1447.660874
-1112.000000 -247.959141 1447.704981
-1112.000000 -249.958655 1447.749088
-1112.000000 -251.958168 1447.793195
-1112.000000 -253.957682 1447.837302
-1112.000000 -255.957196 1447.881409
-1112.000000 -257.956709 1447.925516
-1112.000000 -259.956223 1447.969623
-1112.000000 -261.955736 1448.013729
-1112.000000 -263.955250 1448.057836
-1112.000000 -265.954763 1448.101943
-1112.000000 -267.954277 1448.146050
-1112.000000 -269.953791 1448.190157
-1112.000000 -271.953304 1448.234264
-1112.000000 -273.952818 1448.278371
-1112.000000 -275.952331 1448.322478
-1112.000000 -277.951845 1448.366585
-1112.000000 -279.951359 1448.410692
-1112.000000 -281.950872 1448.454799
-1112.000000 -283.950386 1448.498906
-1112.000000 -285.949899 1448.543012
-1112.000000 -287.949413 1448.587119
-1112.000000 -289.948927 1448.631226
-1112.000000 -291.948440 1448.675333
-1112.000000 -293.947954 1448.719440
-1112.000000 -295.947467 1448.763547
-1112.000000 -297.946981 1448.807654
-1112.000000 -299.946494 1448.851761
-1112.000000 -301.946008 1448.895868
-1112.000000 -303.945522 1448.939975
-1112.000000 -305.945035 1448.984082
-1112.000000 -307.944549 1449.028189
-1112.000000 -309.944062 1449.072295
-1112.000000 -311.943576 1449.116402
-1112.000000 -313.943090 1449.160509
-1112.000000 -315.942603 1449.204616
-1112.000000 -317.942117 1449.248723
-1112.000000 -319.941630 1449.292830
-1112.000000 -321.941144 1449.336937
-1112.000000 -323.940657 1449.381044
-1112.000000 -325.940171 1449.425151
-1112.000000 -327.939685 1449.469258
-1112.000000 -329.939198 1449.513365
-1112.000000 -331.938712 1449.557472
-1112.000000 -333.938225 1449.601579
-1112.000000 -335.937739 1449.645685
-1112.000000 -337.937253 1449.689792
-1112.000000 -339.936766 1449.733899
-1112.000000 -341.936280 1449.778006
-1112.000000 -343.935793 1449.822113
-1112.000000 -345.935307 1449.866220
-1112.000000 -347.934820 1449.910327
-1112.000000 -349.934334 1449.954434
-1112.000000 -351.933848 1449.998541
-1112.000000 -353.933361 1450.042648
-1112.000000 -355.932875 1450.086755
-1112.000000 -357.932388 1450.130862
-1112.000000 -359.931902 1450.174968
-1112.000000 -361.931416 1450.219075
-1112.000000 -363.930929 1450.263182
-1112.000000 -365.930443 1450.307289
-1112.000000 -367.929956 1450.351396
-1112.000000 -369.929470 1450.395503
-1112.000000 -371.928984 1450.439610
-1112.000000 -373.928497 1450.483717
-1112.000000 -375.928011 1450.527824
-1112.000000 -377.927524 1450.571931
-1112.000000 -379.927038 1450.616038
-1112.000000 -381.926551 1450.660145
-1112.000000 -383.926065 1450.704251
-1112.000000 -385.925579 1450.748358
-1112.000000 -387.925092 1450.792465
-1112.000000 -389.924606 1450.836572
-1112.000000 -391.924119 1450.880679
-1112.000000 -393.923633 1450.924786
-1112.000000 -395.923147 1450.968893
-1112.000000 -397.922660 1451.013000
-1112.000000 -399.922174 1451.057107
-1112.000000 -401.921687 1451.101214
-1112.000000 -403.921201 1451.145321
-1112.000000 -405.920714 1451.189428
-1112.000000 -407.920228 1451.233534
-1112.000000 -409.919742 1451.277641
-1112.000000 -411.919255 1451.321748
-1112.000000 -413.918769 1451.365855
-1112.000000 -415.918282 1451.409962
-1112.000000 -417.917796 1451.454069
-1112.000000 -419.917310 1451.498176
-1112.000000 -421.916823 1451.542283
-1112.000000 -423.916337 1451.586390
-1112.000000 -425.915850 1451.630497
-1112.000000 -427.915364 1451.674604
-1112.000000 -429.914878 1451.718711
-1112.000000 -431.914391 1451.762817
-1112.000000 -433.913905 1451.806924
-1112.000000 -435.913418 1451.851031
-1112.000000 -437.912932 1451.895138
-1112.000000 -439.912445 1451.939245
-1112.000000 -441.911959 1451.983352
-1112.000000 -443.911473 1452.027459
-1112.000000 -445.910986 1452.071566
-1112.000000 -447.910500 1452.115673
-1112.000000 -449.910013 1452.159780
-1112.000000 -451.909527 1452.203887
-1112.000000 -453.909041 1452.247994
-1112.000000 -455.908554 1452.292100
-1112.000000 -457.908068 1452.336207
-1112.000000 -459.907581 1452.380314
-1112.000000 -461.907095 1452.424421
-1112.000000 -463.906608 1452.468528
-1112.000000 -465.906122 1452.512635
-1112.000000 -467.905636 1452.556742
-1112.000000 -469.905149 1452.600849
-1112.000000 -471.904663 1452.644956
-1112.000000 -473.904176 1452.689063
-1112.000000 -475.903690 1452.733170
-1112.000000 -477.903204 1452.777277
-1112.000000 -479.902717 1452.821383
-1112.000000 -481.902231 1452.865490
-1112.000000 -483.901744 1452.909597
-1112.000000 -485.901258 1452.953704
-1112.000000 -487.900772 1452.997811
-1112.000000 -489.900285 1453.041918
-1112.000000 -491.899799 1453.086025
-1112.000000 -493.899312 1453.130132
-1112.000000 -495.898826 1453.174239
-1112.000000 -497.898339 1453.218346
-1112.000000 -499.897853 1453.262453
-1112.000000 -501.897367 1453.306560
-1112.000000 -503.896880 1453.350666
-1112.000000 -505.896394 1453.394773
-1112.000000 -507.895907 1453.438880
-1112.000000 -509.895421 1453.482987
-1112.000000 -511.894935 1453.527094
-1112.000000 -513.894448 1453.571201
-1112.000000 -515.893962 1453.615308
-1112.000000 -517.893475 1453.659415
-1112.000000 -519.892989 1453.703522
-1112.000000 -521.892502 1453.747629
-1112.000000 -523.892016 1453.791736
-1112.000000 -525.891530 1453.835843
-1112.000000 -527.891043 1453.879949
-1112.000000 -529.890557 1453.924056
-1112.000000 -531.890070 1453.968163
-1112.000000 -533.889584 1454.012270
-1112.000000 -535.889098 1454.056377
-1112.000000 -537.888611 1454.100484
-1112.000000 -539.888125 1454.144591
-1112.000000 -541.887638 1454.188698
-1112.000000 -543.887152 1454.232805
-1112.000000 -545.886665 1454.276912
-1112.000000 -547.886179 1454.321019
-1112.000000 -549.885693 1454.365126
-1112.000000 -551.885206 1454.409232
-1112.000000 -553.884720 1454.453339
-1112.000000 -555.884233 1454.497446
-1112.000000 -557.883747 1454.541553
-1112.000000 -559.883261 1454.585660
-1112.000000 -561.882774 1454.629767
-1112.000000 -563.882288 1454.673874
-1112.000000 -565.881801 1454.717981
-1112.000000 -567.881315 1454.762088
-1112.000000 -569.880829 1454.806195
-1112.000000 -571.880342 1454.850302
-1112.000000 -573.879856 1454.894409
-1112.000000 -575.879369 1454.938515
-1112.000000 -577.878883 1454.982622
-1112.000000 -579.878396 1455.026729
-1112.000000 -581.877910 1455.070836
-1112.000000 -583.877424 1455.114943
-1112.000000 -585.876937 1455.159050
-1112.000000 -587.876451 1455.203157
-1112.000000 -589.875964 1455.247264
-1112.000000 -591.875478 1455.291371
-1112.000000 -593.874992 1455.335478
-1112.000000 -595.874505 1455.379585
-1112.000000 -597.874019 1455.423692
-1112.000000 -599.873532 1455.467799
-1112.000000 -601.873046 1455.511905
-1112.000000 -603.872559 1455.556012
-1112.000000 -605.872073 1455.600119
-1112.000000 -607.871587 1455.644226
-1112.000000 -609.871100 1455.688333
-1112.000000 -611.870614 1455.732440
-1112.000000 -613.870127 1455.776547
-1112.000000 -615.869641 1455.820654
-1112.000000 -617.869155 1455.864761
-1112.000000 -619.868668 1455.908868
-1112.000000 -621.868182 1455.952975
-1112.000000 -623.867695 1455.997082
-1112.000000 -625.867209 1456.041188
-1112.000000 -627.866723 1456.085295
-1112.000000 -629.866236 1456.129402
-1112.000000 -631.865750 1456.173509
-1112.000000 -633.865263 1456.217616
-1112.000000 -635.864777 1456.261723
-1112.000000 -637.864290 1456.305830
-1112.000000 -639.863804 1456.349937
-1112.000000 -641.863318 1456.394044
-1112.000000 -643.862831 1456.438151
-1112.000000 -645.862345 1456.482258
-1112.000000 -647.861858 1456.526365
-1112.000000 -649.861372 1456.570471
-1112.000000 -651.860886 1456.614578
-1112.000000 -653.860399 1456.658685
-1112.000000 -655.859913 1456.702792
-1112.000000 -657.859426 1456.746899
-1112.000000 -659.858940 1456.791006
-1112.000000 -661.858453 1456.835113
-1112.000000 -663.857967 1456.879220
-1112.000000 -665.857481 1456.923327
-1112.000000 -667.856994 1456.967434
-1112.000000 -669.856508 1457.011541
-1112.000000 -671.856021 1457.055648
-1112.000000 -673.855535 1457.099754
-1112.000000 -675.855049 1457.143861
-1112.000000 -677.854562 1457.187968
-1112.000000 -679.854076 1457.232075
-1112.000000 -681.853589 1457.276182
-1112.000000 -683.853103 1457.320289
-1112.000000 -685.852617 1457.364396
-1112.000000 -687.852130 1457.408503
-1112.000000 -689.851644 1457.452610
-1112.000000 -691.851157 1457.496717
-1112.000000 -693.850671 1457.540824
-1112.000000 -695.850184 1457.584931
-1112.000000 -697.849698 1457.629037
-1112.000000 -699.849212 1457.673144
-1112.000000 -701.848725 1457.717251
-1112.000000 -703.848239 1457.761358
-1112.000000 -705.847752 1457.805465
-1112.000000 -707.847266 1457.849572
-1112.000000 -709.846780 1457.893679
-1112.000000 -711.846293 1457.937786
-1112.000000 -713.845807 1457.981893
-1112.000000 -715.845320 1458.026000
-1112.000000 -717.844834 1458.070107
-1112.000000 -719.844347 1458.114214
-1112.000000 -721.843861 1458.158320
-1112.000000 -723.843375 1458.202427
-1112.000000 -725.842888 1458.246534
-1112.000000 -727.842402 1458.290641
-1112.000000 -729.841915 1458.334748
-1112.000000 -731.841429 1458.378855
-1112.000000 -733.840943 1458.422962
-1112.000000 -735.840456 1458.467069
-1112.000000 -737.839970 1458.511176
-1112.000000 -739.839483 1458.555283
-1112.000000 -741.838997 1458.599390
-1112.000000 -743.838510 1458.643497
-1112.000000 -745.838024 1458.687603
-1112.000000 -747.837538 1458.731710
-1112.000000 -749.837051 1458.775817
-1112.000000 -751.836565 1458.819924
-1112.000000 -753.836078 1458.864031
-1112.000000 -755.835592 1458.908138
-1112.000000 -757.835106 1458.952245
-1112.000000 -759.834619 1458.996352
-1112.000000 -761.834133 1459.040459
-1112.000000 -763.833646 1459.084566
-1112.000000 -765.833160 1459.128673
-1112.000000 -767.832674 1459.172780
-1112.000000 -769.832187 1459.216886
-1112.000000 -771.831701 1459.260993
-1112.000000 -773.831214 1459.305100
-1112.000000 -775.830728 1459.349207
-1112.000000 -777.830241 1459.393314
-1112.000000 -779.829755 1459.437421
-1112.000000 -781.829269 1459.481528
-1112.000000 -783.828782 1459.525635
-1112.000000 -785.828296 1459.569742
-1112.000000 -787.827809 1459.613849
-1112.000000 -789.827323 1459.657956
-1112.000000 -791.826837 1459.702063
-1112.000000 -793.826350 1459.746169
-1112.000000 -795.825864 1459.790276
-1112.000000 -797.825377 1459.834383
-1112.000000 -799.824891 1459.878490
-1112.000000 -801.824404 1459.922597
-1112.000000 -803.823918 1459.966704
-1112.000000 -805.823432 1460.010811
-1112.000000 -807.822945 1460.054918
-1112.000000 -809.822459 1460.099025
-1112.000000 -811.821972 1460.143132
-1112.000000 -813.821486 1460.187239
-1112.000000 -815.821000 1460.231346
-1112.000000 -817.820513 1460.275452
-1112.000000 -819.820027 1460.319559
-1112.000000 -821.819540 1460.363666
-1112.000000 -823.819054 1460.407773
-1112.000000 -825.818568 1460.451880
-1112.000000 -827.818081 1460.495987
-1112.000000 -829.817595 1460.540094
-1112.000000 -831.817108 1460.584201
-1112.000000 -833.816622 1460.628308
-1112.000000 -835.816135 1460.672415
-1112.000000 -837.815649 1460.716522
-1112.000000 -839.815163 1460.760629
-1112.000000 -841.814676 1460.804736
-1112.000000 -843.814190 1460.848842
-1112.000000 -845.813703 1460.892949
-1112.000000 -847.813217 1460.937056
-1112.000000 -849.812731 1460.981163
-1112.000000 -851.812244 1461.025270
-1112.000000 -853.811758 1461.069377
-1112.000000 -855.811271 1461.113484
-1112.000000 -857.810785 1461.157591
-1112.000000 -859.810298 1461.201698
-1112.000000 -861.809812 1461.245805
-1112.000000 -863.809326 1461.289912
-1112.000000 -865.808839 1461.334019
-1112.000000 -867.808353 1461.378125
-1112.000000 -869.807866 1461.422232
-1112.000000 -871.807380 1461.466339
-1112.000000 -873.806894 1461.510446
-1112.000000 -875.806407 1461.554553
-1112.000000 -877.805921 1461.598660
-1112.000000 -879.805434 1461.642767
-1112.000000 -881.804948 1461.686874
-1112.000000 -883.804461 1461.730981
-1112.000000 -885.803975 1461.775088
-1112.000000 -887.803489 1461.819195
-1112.000000 -889.803002 1461.863302
-1112.000000 -891.802516 1461.907408
-1112.000000 -893.802029 1461.951515
-1112.000000 -895.801543 1461.995622
-1112.000000 -897.801057 1462.039729
-1112.000000 -899.800570 1462.083836
-1112.000000 -901.800084 1462.127943
-1112.000000 -903.799597 1462.172050
-1112.000000 -905.799111 1462.216157
-1112.000000 -907.798625 1462.260264
-1112.000000 -909.798138 1462.304371
-1112.000000 -911.797652 1462.348478
-1112.000000 -913.797165 1462.392585
-1112.000000 -915.796679 1462.436691
-1112.000000 -917.796192 1462.480798
-1112.000000 -919.795706 1462.524905
-1112.000000 -921.795220 1462.569012
-1112.000000 -923.794733 1462.613119
-1112.000000 -925.794247 1462.657226
-1112.000000 -927.793760 1462.701333
-1112.000000 -929.793274 1462.745440
-1112.000000 -931.792788 1462.789547
-1112.000000 -933.792301 1462.833654
-1112.000000 -935.791815 1462.877761
-1112.000000 -937.791328 1462.921868
-1112.000000 -939.790842 1462.965974
-1112.000000 -941.790355 1463.010081
-1112.000000 -943.789869 1463.054188
-1112.000000 -945.789383 1463.098295
-1112.000000 -947.788896 1463.142402
-1112.000000 -949.788410 1463.186509
-1112.000000 -951.787923 1463.230616
-1112.000000 -953.787437 1463.274723
-1112.000000 -955.786951 1463.318830
-1112.000000 -957.786464 1463.362937
-1112.000000 -959.785978 1463.407044
-1112.000000 -961.785491 1463.451151
-1112.000000 -963.785005 1463.495257
-1112.000000 -965.784519 1463.539364
-1112.000000 -967.784032 1463.583471
-1112.000000 -969.783546 1463.627578
-1112.000000 -971.783059 1463.671685
-1112.000000 -973.782573 1463.715792
-1112.000000 -975.782086 1463.759899
-1112.000000 -977.781600 1463.804006
-1112.000000 -979.781114 1463.848113
-1112.000000 -981.780627 1463.892220
-1112.000000 -983.780141 1463.936327
-1112.000000 -985.779654 1463.980434
-1112.000000 -987.779168 1464.024540
-1112.000000 -989.778682 1464.068647
-1112.000000 -991.778195 1464.112754
-1112.000000 -993.777709 1464.156861
-1112.000000 -995.777222 1464.200968
-1112.000000 -997.776736 1464.245075
-1112.000000 -999.776249 1464.289182
-1112.000000 -1001.775763 1464.333289
-1112.000000 -1003.775277 1464.377396
-1112.000000 -1005.774790 1464.421503
-1112.000000 -1007.774304 1464.465610
-1112.000000 -1009.773817 1464.509717
-1112.000000 -1011.773331 1464.553823
-1112.000000 -1013.772845 1464.597930
-1112.000000 -1015.772358 1464.642037
-1112.000000 -1017.771872 1464.686144
-1112.000000 -1019.771385 1464.730251
-1112.000000 -1021.770899 1464.774358
-1112.000000 -1023.770413 1464.818465
-1112.000000 -1025.769926 1464.862572
-1112.000000 -1027.769440 1464.906679
-1112.000000 -1029.768953 1464.950786
-1112.000000 -1031.768467 1464.994893
-1112.000000 -1033.767980 1465.039000
-1112.000000 -1035.767494 1465.083106
-1112.000000 -1037.767008 1465.127213
-1112.000000 -1039.766521 1465.171320
-1112.000000 -1041.766035 1465.215427
-1112.000000 -1043.765548 1465.259534
-1112.000000 -1045.765062 1465.303641
-1112.000000 -1047.764576 1465.347748
-1112.000000 -1049.764089 1465.391855
-1112.000000 -1051.763603 1465.435962
-1112.000000 -1053.763116 1465.480069
-1112.000000 -1055.762630 1465.524176
-1112.000000 -1057.762143 1465.568283
-1112.000000 -1059.761657 1465.612389
-1112.000000 -1061.761171 1465.656496
-1112.000000 -1063.760684 1465.700603
-1112.000000 -1065.760198 1465.744710
-1112.000000 -1067.759711 1465.788817
-1112.000000 -1069.759225 1465.832924
-1112.000000 -1071.758739 1465.877031
-1112.000000 -1073.758252 1465.921138
-1112.000000 -1075.757766 1465.965245
-1112.000000 -1077.757279 1466.009352
-1112.000000 -1079.756793 1466.053459
-1112.000000 -1081.756306 1466.097566
-1112.000000 -1083.755820 1466.141673
-1112.000000 -1085.755334 1466.185779
-1112.000000 -1087.754847 1466.229886
-1112.000000 -1089.754361 1466.273993
-1112.000000 -1091.753874 1466.318100
-1112.000000 -1093.753388 1466.362207
-1112.000000 -1095.752902 1466.406314
-1112.000000 -1097.752415 1466.450421
-1112.000000 -1099.751929 1466.494528
-1112.000000 -1101.751442 1466.538635
-1112.000000 -1103.750956 1466.582742
-1112.000000 -1105.750470 1466.626849
-1112.000000 -1107.749983 1466.670956
-1112.000000 -1109.749497 1466.715062
-1112.000000 -1111.749010 1466.759169
-1112.000000 -1113.748524 1466.803276
-1112.000000 -1115.748037 1466.847383
-1112.000000 -1117.747551 1466.891490
-1112.000000 -1119.747065 1466.935597
-1112.000000 -1121.746578 1466.979704
-1112.000000 -1123.746092 1467.023811
-1112.000000 -1125.745605 1467.067918
-1112.000000 -1127.745119 1467.112025
-1112.000000 -1129.744633 1467.156132
-1112.000000 -1131.744146 1467.200239
-1112.000000 -1133.743660 1467.244345
-1112.000000 -1135.743173 1467.288452
-1112.000000 -1137.742687 1467.332559
-1112.000000 -1139.742200 1467.376666
-1112.000000 -1141.741714 1467.420773
-1112.000000 -1143.741228 1467.464880
-1112.000000 -1145.740741 1467.508987
-1112.000000 -1147.740255 1467.553094
-1112.000000 -1149.739768 1467.597201
-1112.000000 -1151.739282 1467.641308
-1112.000000 -1153.738796 1467.685415
-1112.000000 -1155.738309 1467.729522
-1112.000000 -1157.737823 1467.773628
-1112.000000 -1159.737336 1467.817735
-1112.000000 -1161.736850 1467.861842
-1112.000000 -1163.736364 1467.905949
-1112.000000 -1165.735877 1467.950056
-1112.000000 -1168.000000 1468.000000
-1113.991587 -1168.178556 1467.958795
-1115.983175 -1168.357112 1467.917589
-1117.974762 -1168.535668 1467.876384
-1119.966349 -1168.714224 1467.835179
-1121.957936 -1168.892780 1467.793974
-1123.949524 -1169.071337 1467.752768
-1125.941111 -1169.249893 1467.711563
-1127.932698 -1169.428449 1467.670358
-1129.924285 -1169.607005 1467.629153
-1131.915873 -1169.785561 1467.587947
-1133.907460 -1169.964117 1467.546742
-1135.899047 -1170.142673 1467.505537
-1137.890634 -1170.321229 1467.464332
-1139.882222 -1170.499785 1467.423126
-1141.873809 -1170.678341 1467.381921
-1143.865396 -1170.856898 1467.340716
-1145.856984 -1171.035454 1467.299511
-1147.848571 -1171.214010 1467.258305
-1149.840158 -1171.392566 1467.217100
-1151.831745 -1171.571122 1467.175895
-1153.823333 -1171.749678 1467.134690
-1155.814920 -1171.928234 1467.093484
-1157.806507 -1172.106790 1467.052279
-1159.798094 -1172.285346 1467.011074
-1161.789682 -1172.463902 1466.969869
-1163.781269 -1172.642459 1466.928663
-1165.772856 -1172.821015 1466.887458
-1167.764444 -1172.999571 1466.846253
-1169.756031 -1173.178127 1466.805048
-1171.747618 -1173.356683 1466.763842
-1173.739205 -1173.535239 1466.722637
-1175.730793 -1173.713795 1466.681432
-1177.722380 -1173.892351 1466.640227
-1179.713967 -1174.070907 1466.599021
-1181.705554 -1174.249463 1466.557816
-1183.697142 -1174.428020 1466.516611
-1185.688729 -1174.606576 1466.475406
-1187.680316 -1174.785132 1466.434200
-1189.671903 -1174.963688 1466.392995
-1191.663491 -1175.142244 1466.351790
-1193.655078 -1175.320800 1466.310585
-1195.646665 -1175.499356 1466.269379
-1197.638253 -1175.677912 1466.228174
-1199.629840 -1175.856468 1466.186969
-1201.621427 -1176.035024 1466.145764
-1203.613014 -1176.213581 1466.104558
-1205.604602 -1176.392137 1466.063353
-1207.596189 -1176.570693 1466.022148
-1209.587776 -1176.749249 1465.980943
-1211.579363 -1176.927805 1465.939737
-1213.570951 -1177.106361 1465.898532
-1215.562538 -1177.284917 1465.857327
-1217.554125 -1177.463473 1465.816122
-1219.545712 -1177.642029 1465.774916
-1221.537300 -1177.820585 1465.733711
-1223.528887 -1177.999142 1465.692506
-1225.520474 -1178.177698 1465.651301
-1227.512062 -1178.356254 1465.610095
-1229.503649 -1178.534810 1465.568890
-1231.495236 -1178.713366 1465.527685
-1233.486823 -1178.891922 1465.486480
-1235.478411 -1179.070478 1465.445274
-1237.469998 -1179.249034 1465.404069
-1239.461585 -1179.427590 1465.362864
-1241.453172 -1179.606146 1465.321659
-1243.444760 -1179.784703 1465.280453
-1245.436347 -1179.963259 1465.239248
-1247.427934 -1180.141815 1465.198043
-1249.419521 -1180.320371 1465.156837
-1251.411109 -1180.498927 1465.115632
-1253.402696 -1180.677483 1465.074427
-1255.394283 -1180.856039 1465.033222
-1257.385871 -1181.034595 1464.992016
-1259.377458 -1181.213151 1464.950811
-1261.369045 -1181.391707 1464.909606
-1263.360632 -1181.570264 1464.868401
-1265.352220 -1181.748820 1464.827195
-1267.343807 -1181.927376 1464.785990
-1269.335394 -1182.105932 1464.744785
-1271.326981 -1182.284488 1464.703580
-1273.318569 -1182.463044 1464.662374
-1275.310156 -1182.641600 1464.621169
-1277.301743 -1182.820156 1464.579964
-1279.293331 -1182.998712 1464.538759
-1281.284918 -1183.177268 1464.497553
-1283.276505 -1183.355825 1464.456348
-1285.268092 -1183.534381 1464.415143
-1287.259680 -1183.712937 1464.373938
-1289.251267 -1183.891493 1464.332732
-1291.242854 -1184.070049 1464.291527
-1293.234441 -1184.248605 1464.250322
-1295.226029 -1184.427161 1464.209117
-1297.217616 -1184.605717 1464.167911
-1299.209203 -1184.784273 1464.126706
-1301.200790 -1184.962829 1464.085501
-1303.192378 -1185.141386 1464.044296
-1305.183965 -1185.319942 1464.003090
-1307.175552 -1185.498498 1463.961885
-1309.167140 -1185.677054 1463.920680
-1311.158727 -1185.855610 1463.879475
-1313.150314 -1186.034166 1463.838269
-1315.141901 -1186.212722 1463.797064
-1317.133489 -1186.391278 1463.755859
-1319.125076 -1186.569834 1463.714654
-1321.116663 -1186.748390 1463.673448
-1323.108250 -1186.926947 1463.632243
-1325.099838 -1187.105503 1463.591038
-1327.091425 -1187.284059 1463.549833
-1329.083012 -1187.462615 1463.508627
-1331.074599 -1187.641171 1463.467422
-1333.066187 -1187.819727 1463.426217
-1335.057774 -1187.998283 1463.385012
-1337.049361 -1188.176839 1463.343806
-1339.040949 -1188.355395 1463.302601
-1341.032536 -1188.533951 1463.261396
-1343.024123 -1188.712508 1463.220191
-1345.015710 -1188.891064 1463.178985
-1347.007298 -1189.069620 1463.137780
-1348.998885 -1189.248176 1463.096575
-1350.990472 -1189.426732 1463.055370
-1352.982059 -1189.605288 1463.014164
-1354.973647 -1189.783844 1462.972959
-1356.965234 -1189.962400 1462.931754
-1358.956821 -1190.140956 1462.890549
-1360.948409 -1190.319512 1462.849343
-1362.939996 -1190.498069 1462.808138
-1364.931583 -1190.676625 1462.766933
-1366.923170 -1190.855181 1462.725728
-1368.914758 -1191.033737 1462.684522
-1370.906345 -1191.212293 1462.643317
-1372.897932 -1191.390849 1462.602112
-1374.889519 -1191.569405 1462.560906
-1376.881107 -1191.747961 1462.519701
-1378.872694 -1191.926517 1462.478496
-1380.864281 -1192.105073 1462.437291
-1382.855868 -1192.283630 1462.396085
-1384.847456 -1192.462186 1462.354880
-1386.839043 -1192.640742 1462.313675
-1388.830630 -1192.819298 1462.272470
-1390.822218 -1192.997854 1462.231264
-1392.813805 -1193.176410 1462.190059
-1394.805392 -1193.354966 1462.148854
-1396.796979 -1193.533522 1462.107649
-1398.788567 -1193.712078 1462.066443
-1400.780154 -1193.890634 1462.025238
-1402.771741 -1194.069191 1461.984033
-1404.763328 -1194.247747 1461.942828
-1406.754916 -1194.426303 1461.901622
-1408.746503 -1194.604859 1461.860417
-1410.738090 -1194.783415 1461.819212
-1412.729677 -1194.961971 1461.778007
-1414.721265 -1195.140527 1461.736801
-1416.712852 -1195.319083 1461.695596
-1418.704439 -1195.497639 1461.654391
-1420.696027 -1195.676195 1461.613186
-1422.687614 -1195.854752 1461.571980
-1424.679201 -1196.033308 1461.530775
-1426.670788 -1196.211864 1461.489570
-1428.662376 -1196.390420 1461.448365
-1430.653963 -1196.568976 1461.407159
-1432.645550 -1196.747532 1461.365954
-1434.637137 -1196.926088 1461.324749
-1436.628725 -1197.104644 1461.283544
-1438.620312 -1197.283200 1461.242338
-1440.611899 -1197.461756 1461.201133
-1442.603486 -1197.640313 1461.159928
-1444.595074 -1197.818869 1461.118723
-1446.586661 -1197.997425 1461.077517
-1448.578248 -1198.175981 1461.036312
-1450.569836 -1198.354537 1460.995107
-1452.561423 -1198.533093 1460.953902
-1454.553010 -1198.711649 1460.912696
-1456.544597 -1198.890205 1460.871491
-1458.536185 -1199.068761 1460.830286
-1460.527772 -1199.247317 1460.789081
-1462.519359 -1199.425874 1460.747875
-1464.510946 -1199.604430 1460.706670
-1466.502534 -1199.782986 1460.665465
-1468.494121 -1199.961542 1460.624260
-1470.485708 -1200.140098 1460.583054
-1472.477296 -1200.318654 1460.541849
-1474.468883 -1200.497210 1460.500644
-1476.460470 -1200.675766 1460.459439
-1478.452057 -1200.854322 1460.418233
-1480.443645 -1201.032878 1460.377028
-1482.435232 -1201.211435 1460.335823
-1484.426819 -1201.389991 1460.294618
-1486.418406 -1201.568547 1460.253412
-1488.409994 -1201.747103 1460.212207
-1490.401581 -1201.925659 1460.171002
-1492.393168 -1202.104215 1460.129797
-1494.384755 -1202.282771 1460.088591
-1496.376343 -1202.461327 1460.047386
-1498.367930 -1202.639883 1460.006181
-1500.359517 -1202.818439 1459.964976
-1502.351105 -1202.996996 1459.923770
-1504.342692 -1203.175552 1459.882565
-1506.334279 -1203.354108 1459.841360
-1508.325866 -1203.532664 1459.800154
-1510.317454 -1203.711220 1459.758949
-1512.309041 -1203.889776 1459.717744
-1514.300628 -1204.068332 1459.676539
-1516.292215 -1204.246888 1459.635333
-1518.283803 -1204.425444 1459.594128
-1520.275390 -1204.604000 1459.552923
-1522.266977 -1204.782557 1459.511718
-1524.258564 -1204.961113 1459.470512
-1526.250152 -1205.139669 1459.429307
-1528.241739 -1205.318225 1459.388102
-1530.233326 -1205.496781 1459.346897
-1532.224914 -1205.675337 1459.305691
-1534.216501 -1205.853893 1459.264486
-1536.208088 -1206.032449 1459.223281
-1538.199675 -1206.211005 1459.182076
-1540.191263 -1206.389561 1459.140870
-1542.182850 -1206.568118 1459.099665
-1544.174437 -1206.746674 1459.058460
-1546.166024 -1206.925230 1459.017255
-1548.157612 -1207.103786 1458.976049
-1550.149199 -1207.282342 1458.934844
-1552.140786 -1207.460898 1458.893639
-1554.132374 -1207.639454 1458.852434
-1556.123961 -1207.818010 1458.811228
-1558.115548 -1207.996566 1458.770023
-1560.107135 -1208.175122 1458.728818
-1562.098723 -1208.353679 1458.687613
-1564.090310 -1208.532235 1458.646407
-1566.081897 -1208.710791 1458.605202
-1568.073484 -1208.889347 1458.563997
-1570.065072 -1209.067903 1458.522792
-1572.056659 -1209.246459 1458.481586
-1574.048246 -1209.425015 1458.440381
-1576.039833 -1209.603571 1458.399176
-1578.031421 -1209.782127 1458.357971
-1580.023008 -1209.960683 1458.316765
-1582.014595 -1210.139240 1458.275560
-1584.006183 -1210.317796 1458.234355
-1585.997770 -1210.496352 1458.193150
-1587.989357 -1210.674908 1458.151944
-1589.980944 -1210.853464 1458.110739
-1591.972532 -1211.032020 1458.069534
-1593.964119 -1211.210576 1458.028329
-1595.955706 -1211.389132 1457.987123
-1597.947293 -1211.567688 1457.945918
-1599.938881 -1211.746244 1457.904713
-1601.930468 -1211.924801 1457.863508
-1603.922055 -1212.103357 1457.822302
-1605.913642 -1212.281913 1457.781097
-1607.905230 -1212.460469 1457.739892
-1609.896817 -1212.639025 1457.698687
-1611.888404 -1212.817581 1457.657481
-1613.879992 -1212.996137 1457.616276
-1615.871579 -1213.174693 1457.575071
-1617.863166 -1213.353249 1457.533866
-1619.854753 -1213.531805 1457.492660
-1621.846341 -1213.710362 1457.451455
-1623.837928 -1213.888918 1457.410250
-1625.829515 -1214.067474 1457.369045
-1627.821102 -1214.246030 1457.327839
-1629.812690 -1214.424586 1457.286634
-1631.804277 -1214.603142 1457.245429
-1633.795864 -1214.781698 1457.204223
-1635.787451 -1214.960254 1457.163018
-1637.779039 -1215.138810 1457.121813
-1639.770626 -1215.317366 1457.080608
-1641.762213 -1215.495923 1457.039402
-1643.753801 -1215.674479 1456.998197
-1645.745388 -1215.853035 1456.956992
-1647.736975 -1216.031591 1456.915787
-1649.728562 -1216.210147 1456.874581
-1651.720150 -1216.388703 1456.833376
-1653.711737 -1216.567259 1456.792171
-1655.703324 -1216.745815 1456.750966
-1657.694911 -1216.924371 1456.709760
-1659.686499 -1217.102927 1456.668555
-1661.678086 -1217.281484 1456.627350
-1663.669673 -1217.460040 1456.586145
-1665.661261 -1217.638596 1456.544939
-1667.652848 -1217.817152 1456.503734
-1669.644435 -1217.995708 1456.462529
-1671.636022 -1218.174264 1456.421324
-1673.627610 -1218.352820 1456.380118
-1675.619197 -1218.531376 1456.338913
-1677.610784 -1218.709932 1456.297708
-1679.602371 -1218.888488 1456.256503
-1681.593959 -1219.067045 1456.215297
-1683.585546 -1219.245601 1456.174092
-1685.577133 -1219.424157 1456.132887
-1687.568720 -1219.602713 1456.091682
-1689.560308 -1219.781269 1456.050476
-1692.000000 -1220.000000 1456.000000
-1692.000000 -1219.978573 1454.000115
-1692.000000 -1219.957145 1452.000230
-1692.000000 -1219.935718 1450.000344
-1692.000000 -1219.914291 1448.000459
-1692.000000 -1219.892863 1446.000574
-1692.000000 -1219.871436 1444.000689
-1692.000000 -1219.850009 1442.000804
-1692.000000 -1219.828581 1440.000918
-1692.000000 -1219.807154 1438.001033
-1692.000000 -1219.785727 1436.001148
-1692.000000 -1219.764299 1434.001263
-1692.000000 -1219.742872 1432.001377
-1692.000000 -1219.721445 1430.001492
-1692.000000 -1219.700017 1428.001607
-1692.000000 -1219.678590 1426.001722
-1692.000000 -1219.657163 1424.001837
-1692.000000 -1219.635735 1422.001951
-1692.000000 -1219.614308 1420.002066
-1692.000000 -1219.592881 1418.002181
-1692.000000 -1219.571453 1416.002296
-1692.000000 -1219.550026 1414.002411
-1692.000000 -1219.528598 1412.002525
-1692.000000 -1219.507171 1410.002640
-1692.000000 -1219.485744 1408.002755
-1692.000000 -1219.464316 1406.002870
-1692.000000 -1219.442889 1404.002984
-1692.000000 -1219.421462 1402.003099
-1692.000000 -1219.400034 1400.003214
-1692.000000 -1219.378607 1398.003329
-1692.000000 -1219.357180 1396.003444
-1692.000000 -1219.335752 1394.003558
-1692.000000 -1219.314325 1392.003673
-1692.000000 -1219.292898 1390.003788
-1692.000000 -1219.271470 1388.003903
-1692.000000 -1219.250043 1386.004018
-1692.000000 -1219.228616 1384.004132
-1692.000000 -1219.207188 1382.004247
-1692.000000 -1219.185761 1380.004362
-1692.000000 -1219.164334 1378.004477
-1692.000000 -1219.142906 1376.004591
-1692.000000 -1219.121479 1374.004706
-1692.000000 -1219.100052 1372.004821
-1692.000000 -1219.078624 1370.004936
-1692.000000 -1219.057197 1368.005051
-1692.000000 -1219.035770 1366.005165
-1692.000000 -1219.014342 1364.005280
-1692.000000 -1218.992915 1362.005395
-1692.000000 -1218.971488 1360.005510
-1692.000000 -1218.950060 1358.005625
-1692.000000 -1218.928633 1356.005739
-1692.000000 -1218.907206 1354.005854
-1692.000000 -1218.885778 1352.005969
-1692.000000 -1218.864351 1350.006084
-1692.000000 -1218.842924 1348.006198
-1692.000000 -1218.821496 1346.006313
-1692.000000 -1218.800069 1344.006428
-1692.000000 -1218.778642 1342.006543
-1692.000000 -1218.757214 1340.006658
-1692.000000 -1218.735787 1338.006772
-1692.000000 -1218.714360 1336.006887
-1692.000000 -1218.692932 1334.007002
-1692.000000 -1218.671505 1332.007117
-1692.000000 -1218.650077 1330.007232
-1692.000000 -1218.628650 1328.007346
-1692.000000 -1218.607223 1326.007461
-1692.000000 -1218.585795 1324.007576
-1692.000000 -1218.564368 1322.007691
-1692.000000 -1218.542941 1320.007805
-1692.000000 -1218.521513 1318.007920
-1692.000000 -1218.500086 1316.008035
-1692.000000 -1218.478659 1314.008150
-1692.000000 -1218.457231 1312.008265
-1692.000000 -1218.435804 1310.008379
-1692.000000 -1218.414377 1308.008494
-1692.000000 -1218.392949 1306.008609
-1692.000000 -1218.371522 1304.008724
-1692.000000 -1218.350095 1302.008839
-1692.000000 -1218.328667 1300.008953
-1692.000000 -1218.307240 1298.009068
-1692.000000 -1218.285813 1296.009183
-1692.000000 -1218.264385 1294.009298
-1692.000000 -1218.242958 1292.009412
-1692.000000 -1218.221531 1290.009527
-1692.000000 -1218.200103 1288.009642
-1692.000000 -1218.178676 1286.009757
-1692.000000 -1218.157249 1284.009872
-1692.000000 -1218.135821 1282.009986
-1692.000000 -1218.114394 1280.010101
-1692.000000 -1218.092967 1278.010216
-1692.000000 -1218.071539 1276.010331
-1692.000000 -1218.050112 1274.010446
-1692.000000 -1218.028685 1272.010560
-1692.000000 -1218.007257 1270.010675
-1692.000000 -1217.985830 1268.010790
-1692.000000 -1217.964403 1266.010905
-1692.000000 -1217.942975 1264.011019
-1692.000000 -1217.921548 1262.011134
-1692.000000 -1217.900121 1260.011249
-1692.000000 -1217.878693 1258.011364
-1692.000000 -1217.857266 1256.011479
-1692.000000 -1217.835839 1254.011593
-1692.000000 -1217.814411 1252.011708
-1692.000000 -1217.792984 1250.011823
-1692.000000 -1217.771556 1248.011938
-1692.000000 -1217.750129 1246.012053
-1692.000000 -1217.728702 1244.012167
-1692.000000 -1217.707274 1242.012282
-1692.000000 -1217.685847 1240.012397
-1692.000000 -1217.664420 1238.012512
-1692.000000 -1217.642992 1236.012626
-1692.000000 -1217.621565 1234.012741
-1692.000000 -1217.600138 1232.012856
-1692.000000 -1217.578710 1230.012971
-1692.000000 -1217.557283 1228.013086
-1692.000000 -1217.535856 1226.013200
-1692.000000 -1217.514428 1224.013315
-1692.000000 -1217.493001 1222.013430
-1692.000000 -1217.471574 1220.013545
-1692.000000 -1217.450146 1218.013660
-1692.000000 -1217.428719 1216.013774
-1692.000000 -1217.407292 1214.013889
-1692.000000 -1217.385864 1212.014004
-1692.000000 -1217.364437 1210.014119
-1692.000000 -1217.343010 1208.014233
-1692.000000 -1217.321582 1206.014348
-1692.000000 -1217.300155 1204.014463
-1692.000000 -1217.278728 1202.014578
-1692.000000 -1217.257300 1200.014693
-1692.000000 -1217.235873 1198.014807
-1692.000000 -1217.214446 1196.014922
-1692.000000 -1217.193018 1194.015037
-1692.000000 -1217.171591 1192.015152
-1692.000000 -1217.150164 1190.015267
-1692.000000 -1217.128736 1188.015381
-1692.000000 -1217.107309 1186.015496
-1692.000000 -1217.085882 1184.015611
-1692.000000 -1217.064454 1182.015726
-1692.000000 -1217.043027 1180.015840
-1692.000000 -1217.021600 1178.015955
-1692.000000 -1217.000172 1176.016070
-1692.000000 -1216.978745 1174.016185
-1692.000000 -1216.957317 1172.016300
-1692.000000 -1216.935890 1170.016414
-1692.000000 -1216.914463 1168.016529
-1692.000000 -1216.893035 1166.016644
-1692.000000 -1216.871608 1164.016759
-1692.000000 -1216.850181 1162.016874
-1692.000000 -1216.828753 1160.016988
-1692.000000 -1216.807326 1158.017103
-1692.000000 -1216.785899 1156.017218
-1692.000000 -1216.764471 1154.017333
-1692.000000 -1216.743044 1152.017447
-1692.000000 -1216.721617 1150.017562
-1692.000000 -1216.700189 1148.017677
-1692.000000 -1216.678762 1146.017792
-1692.000000 -1216.657335 1144.017907
-1692.000000 -1216.635907 1142.018021
-1692.000000 -1216.614480 1140.018136
-1692.000000 -1216.593053 1138.018251
-1692.000000 -1216.571625 1136.018366
-1692.000000 -1216.550198 1134.018481
-1692.000000 -1216.528771 1132.018595
-1692.000000 -1216.507343 1130.018710
-1692.000000 -1216.485916 1128.018825
-1692.000000 -1216.464489 1126.018940
-1692.000000 -1216.443061 1124.019054
-1692.000000 -1216.421634 1122.019169
-1692.000000 -1216.400207 1120.019284
-1692.000000 -1216.378779 1118.019399
-1692.000000 -1216.357352 1116.019514
-1692.000000 -1216.335925 1114.019628
-1692.000000 -1216.314497 1112.019743
-1692.000000 -1216.293070 1110.019858
-1692.000000 -1216.271643 1108.019973
-1692.000000 -1216.250215 1106.020088
-1692.000000 -1216.228788 1104.020202
-1692.000000 -1216.207361 1102.020317
-1692.000000 -1216.185933 1100.020432
-1692.000000 -1216.164506 1098.020547
-1692.000000 -1216.143079 1096.020661
-1692.000000 -1216.121651 1094.020776
-1692.000000 -1216.100224 1092.020891
-1692.000000 -1216.078796 1090.021006
-1692.000000 -1216.057369 1088.021121
-1692.000000 -1216.035942 1086.021235
-1692.000000 -1216.014514 1084.021350
-1692.000000 -1215.993087 1082.021465
-1692.000000 -1215.971660 1080.021580
-1692.000000 -1215.950232 1078.021695
-1692.000000 -1215.928805 1076.021809
-1692.000000 -1215.907378 1074.021924
-1692.000000 -1215.885950 1072.022039
-1692.000000 -1215.864523 1070.022154
-1692.000000 -1215.843096 1068.022268
-1692.000000 -1215.821668 1066.022383
-1692.000000 -1215.800241 1064.022498
-1692.000000 -1215.778814 1062.022613
-1692.000000 -1215.757386 1060.022728
-1692.000000 -1215.735959 1058.022842
-1692.000000 -1215.714532 1056.022957
-1692.000000 -1215.693104 1054.023072
-1692.000000 -1215.671677 1052.023187
-1692.000000 -1215.650250 1050.023302
-1692.000000 -1215.628822 1048.023416
-1692.000000 -1215.607395 1046.023531
-1692.000000 -1215.585968 1044.023646
-1692.000000 -1215.564540 1042.023761
-1692.000000 -1215.543113 1040.023875
-1692.000000 -1215.521686 1038.023990
-1692.000000 -1215.500258 1036.024105
-1692.000000 -1215.478831 1034.024220
-1692.000000 -1215.457404 1032.024335
-1692.000000 -1215.435976 1030.024449
-1692.000000 -1215.414549 1028.024564
-1692.000000 -1215.393122 1026.024679
-1692.000000 -1215.371694 1024.024794
-1692.000000 -1215.350267 1022.024909
-1692.000000 -1215.328840 1020.025023
-1692.000000 -1215.307412 1018.025138
-1692.000000 -1215.285985 1016.025253
-1692.000000 -1215.264558 1014.025368
-1692.000000 -1215.243130 1012.025482
-1692.000000 -1215.221703 1010.025597
-1692.000000 -1215.200275 1008.025712
-1692.000000 -1215.178848 1006.025827
-1692.000000 -1215.157421 1004.025942
-1692.000000 -1215.135993 1002.026056
-1692.000000 -1215.114566 1000.026171
-1692.000000 -1215.093139 998.026286
-1692.000000 -1215.071711 996.026401
-1692.000000 -1215.050284 994.026516
-1692.000000 -1215.028857 992.026630
-1692.000000 -1215.007429 990.026745
-1692.000000 -1214.986002 988.026860
-1692.000000 -1214.964575 986.026975
-1692.000000 -1214.943147 984.027090
-1692.000000 -1214.921720 982.027204
-1692.000000 -1214.900293 980.027319
-1692.000000 -1214.878865 978.027434
-1692.000000 -1214.857438 976.027549
-1692.000000 -1214.836011 974.027663
-1692.000000 -1214.814583 972.027778
-1692.000000 -1214.793156 970.027893
-1692.000000 -1214.771729 968.028008
-1692.000000 -1214.750301 966.028123
-1692.000000 -1214.728874 964.028237
-1692.000000 -1214.707447 962.028352
-1692.000000 -1214.686019 960.028467
-1692.000000 -1214.664592 958.028582
-1692.000000 -1214.643165 956.028697
-1692.000000 -1214.621737 954.028811
-1692.000000 -1214.600310 952.028926
-1692.000000 -1214.578883 950.029041
-1692.000000 -1214.557455 948.029156
-1692.000000 -1214.536028 946.029270
-1692.000000 -1214.514601 944.029385
-1692.000000 -1214.493173 942.029500
-1692.000000 -1214.471746 940.029615
-1692.000000 -1214.450319 938.029730
-1692.000000 -1214.428891 936.029844
-1692.000000 -1214.407464 934.029959
-1692.000000 -1214.386037 932.030074
-1692.000000 -1214.364609 930.030189
-1692.000000 -1214.343182 928.030304
-1692.000000 -1214.321754 926.030418
-1692.000000 -1214.300327 924.030533
-1692.000000 -1214.278900 922.030648
-1692.000000 -1214.257472 920.030763
-1692.000000 -1214.236045 918.030877
-1692.000000 -1214.214618 916.030992
-1692.000000 -1214.193190 914.031107
-1692.000000 -1214.171763 912.031222
-1692.000000 -1214.150336 910.031337
-1692.000000 -1214.128908 908.031451
-1692.000000 -1214.107481 906.031566
-1692.000000 -1214.086054 904.031681
-1692.000000 -1214.064626 902.031796
-1692.000000 -1214.043199 900.031911
-1692.000000 -1214.021772 898.032025
-1692.000000 -1214.000344 896.032140
-1692.000000 -1213.978917 894.032255
-1692.000000 -1213.957490 892.032370
-1692.000000 -1213.936062 890.032484
-1692.000000 -1213.914635 888.032599
-1692.000000 -1213.893208 886.032714
-1692.000000 -1213.871780 884.032829
-1692.000000 -1213.850353 882.032944
-1692.000000 -1213.828926 880.033058
-1692.000000 -1213.807498 878.033173
-1692.000000 -1213.786071 876.033288
-1692.000000 -1213.764644 874.033403
-1692.000000 -1213.743216 872.033518
-1692.000000 -1213.721789 870.033632
-1692.000000 -1213.700362 868.033747
-1692.000000 -1213.678934 866.033862
-1692.000000 -1213.657507 864.033977
-1692.000000 -1213.636080 862.034091
-1692.000000 -1213.614652 860.034206
-1692.000000 -1213.593225 858.034321
-1692.000000 -1213.571798 856.034436
-1692.000000 -1213.550370 854.034551
-1692.000000 -1213.528943 852.034665
-1692.000000 -1213.507516 850.034780
-1692.000000 -1213.486088 848.034895
-1692.000000 -1213.464661 846.035010
-1692.000000 -1213.443233 844.035125
-1692.000000 -1213.421806 842.035239
-1692.000000 -1213.400379 840.035354
