116.868449 -371.008112 64.661985
115.211512 -369.899168 64.819476
113.554574 -368.790225 64.976967
111.897637 -367.681282 65.134457
110.240700 -366.572338 65.291948
108.583763 -365.463395 65.449439
106.926825 -364.354451 65.606929
105.269888 -363.245508 65.764420
103.612951 -362.136564 65.921911
101.956013 -361.027621 66.079401
100.299076 -359.918678 66.236892
98.642139 -358.809734 66.394383
96.000000 -357.041422 66.645516
95.646596 -356.397857 68.505873
95.293192 -355.754292 70.366231
94.939788 -355.110727 72.226588
94.586384 -354.467162 74.086945
94.232980 -353.823597 75.947303
93.879576 -353.180032 77.807660
93.526172 -352.536466 79.668018
93.172768 -351.892901 81.528375
92.819364 -351.249336 83.388732
92.465960 -350.605771 85.249090
92.112556 -349.962206 87.109447
91.759152 -349.318641 88.969805
91.405748 -348.675076 90.830162
91.052344 -348.031511 92.690519
90.698940 -347.387946 94.550877
90.345536 -346.744381 96.411234
89.992132 -346.100816 98.271591
89.638728 -345.457251 100.131949
89.285324 -344.813686 101.992306
88.931919 -344.170121 103.852664
88.578515 -343.526556 105.713021
88.225111 -342.882991 107.573378
87.871707 -342.239425 109.433736
87.518303 -341.595860 111.294093
87.164899 -340.952295 113.154451
86.811495 -340.308730 115.014808
86.458091 -339.665165 116.875165
86.104687 -339.021600 118.735523
85.751283 -338.378035 120.595880
85.397879 -337.734470 122.456237
85.044475 -337.090905 124.316595
84.691071 -336.447340 126.176952
84.337667 -335.803775 128.037310
83.984263 -335.160210 129.897667
83.630859 -334.516645 131.758024
83.277455 -333.873080 133.618382
82.924051 -333.229515 135.478739
82.570647 -332.585950 137.339097
82.217243 -331.942384 139.199454
81.863839 -331.298819 141.059811
81.510435 -330.655254 142.920169
81.157031 -330.011689 144.780526
80.803627 -329.368124 146.640883
80.450223 -328.724559 148.501241
80.096819 -328.080994 150.361598
79.743415 -327.437429 152.221956
79.390011 -326.793864 154.082313
79.036607 -326.150299 155.942670
78.683203 -325.506734 157.803028
78.329799 -324.863169 159.663385
77.976395 -324.219604 161.523743
77.622991 -323.576039 163.384100
77.269587 -322.932474 165.244457
76.916183 -322.288909 167.104815
76.562779 -321.645343 168.965172
76.209375 -321.001778 170.825529
75.855971 -320.358213 172.685887
75.502567 -319.714648 174.546244
75.149162 -319.071083 176.406602
74.795758 -318.427518 178.266959
74.442354 -317.783953 180.127316
74.088950 -317.140388 181.987674
73.735546 -316.496823 183.848031
73.382142 -315.853258 185.708389
73.028738 -315.209693 187.568746
72.675334 -314.566128 189.429103
72.321930 -313.922563 191.289461
71.968526 -313.278998 193.149818
71.615122 -312.635433 195.010176
71.261718 -311.991868 196.870533
70.908314 -311.348302 198.730890
70.554910 -310.704737 200.591248
70.201506 -310.061172 202.451605
69.848102 -309.417607 204.311962
69.494698 -308.774042 206.172320
69.141294 -308.130477 208.032677
68.787890 -307.486912 209.893035
68.434486 -306.843347 211.753392
68.081082 -306.199782 213.613749
67.727678 -305.556217 215.474107
67.374274 -304.912652 217.334464
67.020870 -304.269087 219.194822
66.667466 -303.625522 221.055179
66.314062 -302.981957 222.915536
65.960658 -302.338392 224.775894
65.607254 -301.694827 226.636251
65.253850 -301.051261 228.496608
64.900446 -300.407696 230.356966
64.547042 -299.764131 232.217323
64.193638 -299.120566 234.077681
63.840234 -298.477001 235.938038
63.486830 -297.833436 237.798395
63.133426 -297.189871 239.658753
62.780022 -296.546306 241.519110
62.426618 -295.902741 243.379468
62.073214 -295.259176 245.239825
61.719810 -294.615611 247.100182
61.366405 -293.972046 248.960540
61.013001 -293.328481 250.820897
60.659597 -292.684916 252.681254
60.306193 -292.041351 254.541612
59.952789 -291.397785 256.401969
59.599385 -290.754220 258.262327
59.245981 -290.110655 260.122684
58.892577 -289.467090 261.983041
58.539173 -288.823525 263.843399
58.185769 -288.179960 265.703756
57.832365 -287.536395 267.564114
57.478961 -286.892830 269.424471
57.125557 -286.249265 271.284828
56.772153 -285.605700 273.145186
56.418749 -284.962135 275.005543
56.065345 -284.318570 276.865901
55.711941 -283.675005 278.726258
55.358537 -283.031440 280.586615
55.005133 -282.387875 282.446973
54.651729 -281.744310 284.307330
54.298325 -281.100744 286.167687
53.944921 -280.457179 288.028045
53.591517 -279.813614 289.888402
53.238113 -279.170049 291.748760
52.884709 -278.526484 293.609117
52.531305 -277.882919 295.469474
52.177901 -277.239354 297.329832
51.824497 -276.595789 299.190189
51.471093 -275.952224 301.050547
51.117689 -275.308659 302.910904
50.764285 -274.665094 304.771261
50.410881 -274.021529 306.631619
50.057477 -273.377964 308.491976
49.704073 -272.734399 310.352333
49.350669 -272.090834 312.212691
48.997265 -271.447269 314.073048
48.643861 -270.803703 315.933406
48.290457 -270.160138 317.793763
47.937053 -269.516573 319.654120
47.583648 -268.873008 321.514478
47.230244 -268.229443 323.374835
46.876840 -267.585878 325.235193
46.523436 -266.942313 327.095550
46.170032 -266.298748 328.955907
45.816628 -265.655183 330.816265
45.463224 -265.011618 332.676622
45.109820 -264.368053 334.536979
44.756416 -263.724488 336.397337
44.403012 -263.080923 338.257694
44.049608 -262.437358 340.118052
43.696204 -261.793793 341.978409
43.342800 -261.150228 343.838766
42.989396 -260.506662 345.699124
42.635992 -259.863097 347.559481
42.282588 -259.219532 349.419839
41.929184 -258.575967 351.280196
41.575780 -257.932402 353.140553
41.222376 -257.288837 355.000911
40.868972 -256.645272 356.861268
40.515568 -256.001707 358.721626
40.162164 -255.358142 360.581983
39.808760 -254.714577 362.442340
39.455356 -254.071012 364.302698
39.101952 -253.427447 366.163055
38.748548 -252.783882 368.023412
38.395144 -252.140317 369.883770
38.041740 -251.496752 371.744127
37.688336 -250.853187 373.604485
37.334932 -250.209621 375.464842
36.981528 -249.566056 377.325199
36.628124 -248.922491 379.185557
36.274720 -248.278926 381.045914
35.921316 -247.635361 382.906272
35.567912 -246.991796 384.766629
35.214508 -246.348231 386.626986
34.861104 -245.704666 388.487344
34.507700 -245.061101 390.347701
34.154296 -244.417536 392.208058
33.800891 -243.773971 394.068416
33.447487 -243.130406 395.928773
33.094083 -242.486841 397.789131
32.740679 -241.843276 399.649488
32.387275 -241.199711 401.509845
32.033871 -240.556146 403.370203
31.680467 -239.912580 405.230560
31.327063 -239.269015 407.090918
30.973659 -238.625450 408.951275
30.620255 -237.981885 410.811632
30.266851 -237.338320 412.671990
29.913447 -236.694755 414.532347
29.560043 -236.051190 416.392704
29.206639 -235.407625 418.253062
28.853235 -234.764060 420.113419
28.499831 -234.120495 421.973777
28.146427 -233.476930 423.834134
27.793023 -232.833365 425.694491
27.439619 -232.189800 427.554849
27.086215 -231.546235 429.415206
26.732811 -230.902670 431.275564
26.379407 -230.259105 433.135921
26.026003 -229.615539 434.996278
25.672599 -228.971974 436.856636
25.319195 -228.328409 438.716993
24.965791 -227.684844 440.577350
24.612387 -227.041279 442.437708
24.258983 -226.397714 444.298065
23.905579 -225.754149 446.158423
23.552175 -225.110584 448.018780
23.198771 -224.467019 449.879137
22.845367 -223.823454 451.739495
22.491963 -223.179889 453.599852
22.138559 -222.536324 455.460210
21.785155 -221.892759 457.320567
21.431751 -221.249194 459.180924
21.078347 -220.605629 461.041282
20.724943 -219.962064 462.901639
20.371539 -219.318498 464.761997
20.018134 -218.674933 466.622354
19.664730 -218.031368 468.482711
19.311326 -217.387803 470.343069
18.957922 -216.744238 472.203426
18.604518 -216.100673 474.063783
18.251114 -215.457108 475.924141
17.897710 -214.813543 477.784498
17.544306 -214.169978 479.644856
17.190902 -213.526413 481.505213
16.837498 -212.882848 483.365570
16.484094 -212.239283 485.225928
16.130690 -211.595718 487.086285
15.777286 -210.952153 488.946643
15.423882 -210.308588 490.807000
15.070478 -209.665023 492.667357
14.717074 -209.021457 494.527715
14.363670 -208.377892 496.388072
14.010266 -207.734327 498.248429
13.656862 -207.090762 500.108787
13.303458 -206.447197 501.969144
12.950054 -205.803632 503.829502
12.596650 -205.160067 505.689859
12.243246 -204.516502 507.550216
11.889842 -203.872937 509.410574
11.536438 -203.229372 511.270931
11.183034 -202.585807 513.131289
10.829630 -201.942242 514.991646
10.476226 -201.298677 516.852003
10.122822 -200.655112 518.712361
9.769418 -200.011547 520.572718
9.416014 -199.367981 522.433075
9.062610 -198.724416 524.293433
8.709206 -198.080851 526.153790
8.355802 -197.437286 528.014148
8.002398 -196.793721 529.874505
7.648994 -196.150156 531.734862
7.295590 -195.506591 533.595220
6.942186 -194.863026 535.455577
6.588782 -194.219461 537.315935
6.235377 -193.575896 539.176292
5.881973 -192.932331 541.036649
5.528569 -192.288766 542.897007
5.175165 -191.645201 544.757364
4.821761 -191.001636 546.617722
4.468357 -190.358071 548.478079
4.114953 -189.714506 550.338436
3.761549 -189.070940 552.198794
3.408145 -188.427375 554.059151
3.054741 -187.783810 555.919508
2.701337 -187.140245 557.779866
2.347933 -186.496680 559.640223
1.994529 -185.853115 561.500581
1.641125 -185.209550 563.360938
1.287721 -184.565985 565.221295
0.934317 -183.922420 567.081653
0.580913 -183.278855 568.942010
0.000000 -182.220985 572.000000
-0.006541 -184.217409 572.119371
-0.013082 -186.213833 572.238742
-0.019623 -188.210257 572.358113
-0.026164 -190.206680 572.477484
-0.032704 -192.203104 572.596856
-0.039245 -194.199528 572.716227
-0.045786 -196.195952 572.835598
-0.052327 -198.192375 572.954969
-0.058868 -200.188799 573.074340
-0.065409 -202.185223 573.193711
-0.071950 -204.181647 573.313082
-0.078491 -206.178070 573.432453
-0.085031 -208.174494 573.551824
-0.091572 -210.170918 573.671196
-0.098113 -212.167341 573.790567
-0.104654 -214.163765 573.909938
-0.111195 -216.160189 574.029309
-0.117736 -218.156613 574.148680
-0.124277 -220.153036 574.268051
-0.130818 -222.149460 574.387422
-0.137359 -224.145884 574.506793
-0.143899 -226.142308 574.626164
-0.150440 -228.138731 574.745535
-0.156981 -230.135155 574.864907
-0.163522 -232.131579 574.984278
-0.170063 -234.128003 575.103649
-0.176604 -236.124426 575.223020
-0.183145 -238.120850 575.342391
-0.189686 -240.117274 575.461762
-0.196226 -242.113698 575.581133
-0.202767 -244.110121 575.700504
-0.209308 -246.106545 575.819875
-0.215849 -248.102969 575.939247
-0.222390 -250.099393 576.058618
-0.228931 -252.095816 576.177989
-0.235472 -254.092240 576.297360
-0.242013 -256.088664 576.416731
-0.248554 -258.085088 576.536102
-0.255094 -260.081511 576.655473
-0.261635 -262.077935 576.774844
-0.268176 -264.074359 576.894215
-0.274717 -266.070783 577.013587
-0.281258 -268.067206 577.132958
-0.287799 -270.063630 577.252329
-0.294340 -272.060054 577.371700
-0.300881 -274.056477 577.491071
-0.307421 -276.052901 577.610442
-0.313962 -278.049325 577.729813
-0.320503 -280.045749 577.849184
-0.327044 -282.042172 577.968555
-0.333585 -284.038596 578.087927
-0.340126 -286.035020 578.207298
-0.346667 -288.031444 578.326669
-0.353208 -290.027867 578.446040
-0.359749 -292.024291 578.565411
-0.366289 -294.020715 578.684782
-0.372830 -296.017139 578.804153
-0.379371 -298.013562 578.923524
-0.385912 -300.009986 579.042895
-0.392453 -302.006410 579.162266
-0.398994 -304.002834 579.281638
-0.405535 -305.999257 579.401009
-0.412076 -307.995681 579.520380
-0.418616 -309.992105 579.639751
-0.425157 -311.988529 579.759122
-0.431698 -313.984952 579.878493
-0.438239 -315.981376 579.997864
-0.444780 -317.977800 580.117235
-0.451321 -319.974224 580.236606
-0.457862 -321.970647 580.355978
-0.464403 -323.967071 580.475349
-0.470944 -325.963495 580.594720
-0.477484 -327.959918 580.714091
-0.484025 -329.956342 580.833462
-0.490566 -331.952766 580.952833
-0.497107 -333.949190 581.072204
-0.503648 -335.945613 581.191575
-0.510189 -337.942037 581.310946
-0.516730 -339.938461 581.430318
-0.523271 -341.934885 581.549689
-0.529811 -343.931308 581.669060
-0.536352 -345.927732 581.788431
-0.542893 -347.924156 581.907802
-0.549434 -349.920580 582.027173
-0.555975 -351.917003 582.146544
-0.562516 -353.913427 582.265915
-0.569057 -355.909851 582.385286
-0.575598 -357.906275 582.504657
-0.582139 -359.902698 582.624029
-0.588679 -361.899122 582.743400
-0.595220 -363.895546 582.862771
-0.601761 -365.891970 582.982142
-0.608302 -367.888393 583.101513
-0.614843 -369.884817 583.220884
-0.621384 -371.881241 583.340255
-0.627925 -373.877665 583.459626
-0.634466 -375.874088 583.578997
-0.641006 -377.870512 583.698369
-0.647547 -379.866936 583.817740
-0.654088 -381.863360 583.937111
-0.660629 -383.859783 584.056482
-0.667170 -385.856207 584.175853
-0.673711 -387.852631 584.295224
-0.680252 -389.849054 584.414595
-0.686793 -391.845478 584.533966
-0.693334 -393.841902 584.653337
-0.699874 -395.838326 584.772709
-0.706415 -397.834749 584.892080
-0.712956 -399.831173 585.011451
-0.719497 -401.827597 585.130822
-0.726038 -403.824021 585.250193
-0.732579 -405.820444 585.369564
-0.739120 -407.816868 585.488935
-0.745661 -409.813292 585.608306
-0.752202 -411.809716 585.727677
-0.758742 -413.806139 585.847049
-0.765283 -415.802563 585.966420
-0.771824 -417.798987 586.085791
-0.778365 -419.795411 586.205162
-0.784906 -421.791834 586.324533
-0.791447 -423.788258 586.443904
-0.797988 -425.784682 586.563275
-0.804529 -427.781106 586.682646
-0.811069 -429.777529 586.802017
-0.817610 -431.773953 586.921388
-0.824151 -433.770377 587.040760
-0.830692 -435.766801 587.160131
-0.837233 -437.763224 587.279502
-0.843774 -439.759648 587.398873
-0.850315 -441.756072 587.518244
-0.856856 -443.752495 587.637615
-0.863397 -445.748919 587.756986
-0.869937 -447.745343 587.876357
-0.876478 -449.741767 587.995728
-0.883019 -451.738190 588.115100
-0.889560 -453.734614 588.234471
-0.896101 -455.731038 588.353842
-0.902642 -457.727462 588.473213
-0.909183 -459.723885 588.592584
-0.915724 -461.720309 588.711955
-0.922264 -463.716733 588.831326
-0.928805 -465.713157 588.950697
-0.935346 -467.709580 589.070068
-0.941887 -469.706004 589.189440
-0.948428 -471.702428 589.308811
-0.954969 -473.698852 589.428182
-0.961510 -475.695275 589.547553
-0.968051 -477.691699 589.666924
-0.974592 -479.688123 589.786295
-0.981132 -481.684547 589.905666
-0.987673 -483.680970 590.025037
-0.994214 -485.677394 590.144408
-1.000755 -487.673818 590.263780
-1.007296 -489.670242 590.383151
-1.013837 -491.666665 590.502522
-1.020378 -493.663089 590.621893
-1.026919 -495.659513 590.741264
-1.033459 -497.655937 590.860635
-1.040000 -499.652360 590.980006
-1.046541 -501.648784 591.099377
-1.053082 -503.645208 591.218748
-1.059623 -505.641631 591.338119
-1.066164 -507.638055 591.457491
-1.072705 -509.634479 591.576862
-1.079246 -511.630903 591.696233
-1.085787 -513.627326 591.815604
-1.092327 -515.623750 591.934975
-1.098868 -517.620174 592.054346
-1.105409 -519.616598 592.173717
-1.111950 -521.613021 592.293088
-1.118491 -523.609445 592.412459
-1.125032 -525.605869 592.531831
-1.131573 -527.602293 592.651202
-1.138114 -529.598716 592.770573
-1.144654 -531.595140 592.889944
-1.151195 -533.591564 593.009315
-1.157736 -535.587988 593.128686
-1.164277 -537.584411 593.248057
-1.170818 -539.580835 593.367428
-1.177359 -541.577259 593.486799
-1.183900 -543.573683 593.606171
-1.190441 -545.570106 593.725542
-1.196982 -547.566530 593.844913
-1.203522 -549.562954 593.964284
-1.210063 -551.559378 594.083655
-1.216604 -553.555801 594.203026
-1.223145 -555.552225 594.322397
-1.229686 -557.548649 594.441768
-1.236227 -559.545073 594.561139
-1.242768 -561.541496 594.680511
-1.249309 -563.537920 594.799882
-1.255849 -565.534344 594.919253
-1.262390 -567.530767 595.038624
-1.268931 -569.527191 595.157995
-1.275472 -571.523615 595.277366
-1.282013 -573.520039 595.396737
-1.288554 -575.516462 595.516108
-1.295095 -577.512886 595.635479
-1.301636 -579.509310 595.754850
-1.308177 -581.505734 595.874222
-1.314717 -583.502157 595.993593
-1.321258 -585.498581 596.112964
-1.327799 -587.495005 596.232335
-1.334340 -589.491429 596.351706
-1.340881 -591.487852 596.471077
-1.347422 -593.484276 596.590448
-1.353963 -595.480700 596.709819
-1.360504 -597.477124 596.829190
-1.367044 -599.473547 596.948562
-1.373585 -601.469971 597.067933
-1.380126 -603.466395 597.187304
-1.386667 -605.462819 597.306675
-1.393208 -607.459242 597.426046
-1.399749 -609.455666 597.545417
-1.406290 -611.452090 597.664788
-1.412831 -613.448514 597.784159
-1.419372 -615.444937 597.903530
-1.425912 -617.441361 598.022902
-1.432453 -619.437785 598.142273
-1.438994 -621.434208 598.261644
-1.445535 -623.430632 598.381015
-1.452076 -625.427056 598.500386
-1.458617 -627.423480 598.619757
-1.465158 -629.419903 598.739128
-1.471699 -631.416327 598.858499
-1.478239 -633.412751 598.977870
-1.484780 -635.409175 599.097241
-1.491321 -637.405598 599.216613
-1.497862 -639.402022 599.335984
-1.504403 -641.398446 599.455355
-1.510944 -643.394870 599.574726
-1.517485 -645.391293 599.694097
-1.524026 -647.387717 599.813468
-1.530567 -649.384141 599.932839
-1.537107 -651.380565 600.052210
-1.543648 -653.376988 600.171581
-1.550189 -655.373412 600.290953
-1.556730 -657.369836 600.410324
-1.563271 -659.366260 600.529695
-1.569812 -661.362683 600.649066
-1.576353 -663.359107 600.768437
-1.582894 -665.355531 600.887808
-1.589434 -667.351955 601.007179
-1.595975 -669.348378 601.126550
-1.602516 -671.344802 601.245921
-1.609057 -673.341226 601.365293
-1.615598 -675.337650 601.484664
-1.622139 -677.334073 601.604035
-1.628680 -679.330497 601.723406
-1.635221 -681.326921 601.842777
-1.641762 -683.323344 601.962148
-1.648302 -685.319768 602.081519
-1.654843 -687.316192 602.200890
-1.661384 -689.312616 602.320261
-1.667925 -691.309039 602.439633
-1.674466 -693.305463 602.559004
-1.681007 -695.301887 602.678375
-1.687548 -697.298311 602.797746
-1.694089 -699.294734 602.917117
-1.700629 -701.291158 603.036488
-1.707170 -703.287582 603.155859
-1.713711 -705.284006 603.275230
-1.720252 -707.280429 603.394601
-1.726793 -709.276853 603.513972
-1.733334 -711.273277 603.633344
-1.739875 -713.269701 603.752715
-1.746416 -715.266124 603.872086
-1.752957 -717.262548 603.991457
-1.759497 -719.258972 604.110828
-1.766038 -721.255396 604.230199
-1.772579 -723.251819 604.349570
-1.779120 -725.248243 604.468941
-1.785661 -727.244667 604.588312
-1.792202 -729.241091 604.707684
-1.798743 -731.237514 604.827055
-1.805284 -733.233938 604.946426
-1.811824 -735.230362 605.065797
-1.818365 -737.226785 605.185168
-1.824906 -739.223209 605.304539
-1.831447 -741.219633 605.423910
-1.837988 -743.216057 605.543281
-1.844529 -745.212480 605.662652
-1.851070 -747.208904 605.782024
-1.857611 -749.205328 605.901395
-1.864152 -751.201752 606.020766
-1.870692 -753.198175 606.140137
-1.877233 -755.194599 606.259508
-1.883774 -757.191023 606.378879
-1.890315 -759.187447 606.498250
-1.896856 -761.183870 606.617621
-1.903397 -763.180294 606.736992
-1.909938 -765.176718 606.856364
-1.916479 -767.173142 606.975735
-1.923019 -769.169565 607.095106
-1.929560 -771.165989 607.214477
-1.936101 -773.162413 607.333848
-1.942642 -775.158837 607.453219
-1.949183 -777.155260 607.572590
-1.955724 -779.151684 607.691961
-1.962265 -781.148108 607.811332
-1.968806 -783.144532 607.930703
-1.975347 -785.140955 608.050075
-1.981887 -787.137379 608.169446
-1.988428 -789.133803 608.288817
-1.994969 -791.130227 608.408188
-2.001510 -793.126650 608.527559
-2.008051 -795.123074 608.646930
-2.014592 -797.119498 608.766301
-2.021133 -799.115921 608.885672
-2.027674 -801.112345 609.005043
-2.034214 -803.108769 609.124415
-2.040755 -805.105193 609.243786
-2.047296 -807.101616 609.363157
-2.053837 -809.098040 609.482528
-2.060378 -811.094464 609.601899
-2.066919 -813.090888 609.721270
-2.073460 -815.087311 609.840641
-2.080001 -817.083735 609.960012
-2.086542 -819.080159 610.079383
-2.093082 -821.076583 610.198755
-2.099623 -823.073006 610.318126
-2.106164 -825.069430 610.437497
-2.112705 -827.065854 610.556868
-2.119246 -829.062278 610.676239
-2.125787 -831.058701 610.795610
-2.132328 -833.055125 610.914981
-2.138869 -835.051549 611.034352
-2.145410 -837.047973 611.153723
-2.151950 -839.044396 611.273095
-2.158491 -841.040820 611.392466
-2.165032 -843.037244 611.511837
-2.171573 -845.033668 611.631208
-2.178114 -847.030091 611.750579
-2.184655 -849.026515 611.869950
-2.191196 -851.022939 611.989321
-2.197737 -853.019362 612.108692
-2.204277 -855.015786 612.228063
-2.210818 -857.012210 612.347434
-2.217359 -859.008634 612.466806
-2.223900 -861.005057 612.586177
-2.230441 -863.001481 612.705548
-2.236982 -864.997905 612.824919
-2.243523 -866.994329 612.944290
-2.250064 -868.990752 613.063661
-2.256605 -870.987176 613.183032
-2.263145 -872.983600 613.302403
-2.269686 -874.980024 613.421774
-2.276227 -876.976447 613.541146
-2.282768 -878.972871 613.660517
-2.289309 -880.969295 613.779888
-2.295850 -882.965719 613.899259
-2.302391 -884.962142 614.018630
-2.308932 -886.958566 614.138001
-2.315472 -888.954990 614.257372
-2.322013 -890.951414 614.376743
-2.328554 -892.947837 614.496114
-2.335095 -894.944261 614.615486
-2.341636 -896.940685 614.734857
-2.348177 -898.937109 614.854228
-2.354718 -900.933532 614.973599
-2.361259 -902.929956 615.092970
-2.367800 -904.926380 615.212341
-2.374340 -906.922804 615.331712
-2.380881 -908.919227 615.451083
-2.387422 -910.915651 615.570454
-2.393963 -912.912075 615.689825
-2.400504 -914.908498 615.809197
-2.407045 -916.904922 615.928568
-2.413586 -918.901346 616.047939
-2.420127 -920.897770 616.167310
-2.426667 -922.894193 616.286681
-2.433208 -924.890617 616.406052
-2.439749 -926.887041 616.525423
-2.446290 -928.883465 616.644794
-2.452831 -930.879888 616.764165
-2.459372 -932.876312 616.883537
-2.465913 -934.872736 617.002908
-2.472454 -936.869160 617.122279
-2.478995 -938.865583 617.241650
-2.485535 -940.862007 617.361021
-2.492076 -942.858431 617.480392
-2.498617 -944.854855 617.599763
-2.505158 -946.851278 617.719134
-2.511699 -948.847702 617.838505
-2.518240 -950.844126 617.957877
-2.524781 -952.840550 618.077248
-2.531322 -954.836973 618.196619
-2.537862 -956.833397 618.315990
-2.544403 -958.829821 618.435361
-2.550944 -960.826245 618.554732
-2.557485 -962.822668 618.674103
-2.564026 -964.819092 618.793474
-2.570567 -966.815516 618.912845
-2.577108 -968.811940 619.032217
-2.583649 -970.808363 619.151588
-2.590190 -972.804787 619.270959
-2.596730 -974.801211 619.390330
-2.603271 -976.797634 619.509701
-2.609812 -978.794058 619.629072
-2.616353 -980.790482 619.748443
-2.622894 -982.786906 619.867814
-2.629435 -984.783329 619.987185
-2.635976 -986.779753 620.106556
-2.642517 -988.776177 620.225928
-2.649057 -990.772601 620.345299
-2.655598 -992.769024 620.464670
-2.662139 -994.765448 620.584041
-2.668680 -996.761872 620.703412
-2.675221 -998.758296 620.822783
-2.681762 -1000.754719 620.942154
-2.688303 -1002.751143 621.061525
-2.694844 -1004.747567 621.180896
-2.701385 -1006.743991 621.300268
-2.707925 -1008.740414 621.419639
-2.714466 -1010.736838 621.539010
-2.721007 -1012.733262 621.658381
-2.727548 -1014.729686 621.777752
-2.734089 -1016.726109 621.897123
-2.740630 -1018.722533 622.016494
-2.747171 -1020.718957 622.135865
-2.753712 -1022.715381 622.255236
-2.760252 -1024.711804 622.374608
-2.766793 -1026.708228 622.493979
-2.773334 -1028.704652 622.613350
-2.779875 -1030.701075 622.732721
-2.786416 -1032.697499 622.852092
-2.792957 -1034.693923 622.971463
-2.799498 -1036.690347 623.090834
-2.806039 -1038.686770 623.210205
-2.812580 -1040.683194 623.329576
-2.819120 -1042.679618 623.448948
-2.825661 -1044.676042 623.568319
-2.832202 -1046.672465 623.687690
-2.838743 -1048.668889 623.807061
-2.845284 -1050.665313 623.926432
-2.851825 -1052.661737 624.045803
-2.858366 -1054.658160 624.165174
-2.864907 -1056.654584 624.284545
-2.871447 -1058.651008 624.403916
-2.877988 -1060.647432 624.523287
-2.884529 -1062.643855 624.642659
-2.891070 -1064.640279 624.762030
-2.897611 -1066.636703 624.881401
-2.904152 -1068.633127 625.000772
-2.910693 -1070.629550 625.120143
-2.917234 -1072.625974 625.239514
-2.923775 -1074.622398 625.358885
-2.930315 -1076.618822 625.478256
-2.936856 -1078.615245 625.597627
-2.943397 -1080.611669 625.716999
-2.949938 -1082.608093 625.836370
-2.956479 -1084.604517 625.955741
-2.963020 -1086.600940 626.075112
-2.969561 -1088.597364 626.194483
-2.976102 -1090.593788 626.313854
-2.982642 -1092.590211 626.433225
-2.989183 -1094.586635 626.552596
-2.995724 -1096.583059 626.671967
-3.002265 -1098.579483 626.791339
-3.008806 -1100.575906 626.910710
-3.015347 -1102.572330 627.030081
-3.021888 -1104.568754 627.149452
-3.028429 -1106.565178 627.268823
-3.034970 -1108.561601 627.388194
-3.041510 -1110.558025 627.507565
-3.048051 -1112.554449 627.626936
-3.054592 -1114.550873 627.746307
-3.061133 -1116.547296 627.865679
-3.067674 -1118.543720 627.985050
-3.074215 -1120.540144 628.104421
-3.080756 -1122.536568 628.223792
-3.087297 -1124.532991 628.343163
-3.093837 -1126.529415 628.462534
-3.100378 -1128.525839 628.581905
-3.106919 -1130.522263 628.701276
-3.113460 -1132.518686 628.820647
-3.120001 -1134.515110 628.940018
-3.126542 -1136.511534 629.059390
-3.133083 -1138.507958 629.178761
-3.139624 -1140.504381 629.298132
-3.146165 -1142.500805 629.417503
-3.152705 -1144.497229 629.536874
-3.159246 -1146.493652 629.656245
-3.165787 -1148.490076 629.775616
-3.172328 -1150.486500 629.894987
-3.178869 -1152.482924 630.014358
-3.185410 -1154.479347 630.133730
-3.191951 -1156.475771 630.253101
-3.198492 -1158.472195 630.372472
-3.205032 -1160.468619 630.491843
-3.211573 -1162.465042 630.611214
-3.218114 -1164.461466 630.730585
-3.224655 -1166.457890 630.849956
-3.231196 -1168.454314 630.969327
-3.237737 -1170.450737 631.088698
-3.244278 -1172.447161 631.208070
-3.250819 -1174.443585 631.327441
-3.257360 -1176.440009 631.446812
-3.263900 -1178.436432 631.566183
-3.270441 -1180.432856 631.685554
-3.276982 -1182.429280 631.804925
-3.283523 -1184.425704 631.924296
-3.290064 -1186.422127 632.043667
-3.296605 -1188.418551 632.163038
-3.303146 -1190.414975 632.282409
-3.309687 -1192.411399 632.401781
-3.316227 -1194.407822 632.521152
-3.322768 -1196.404246 632.640523
-3.329309 -1198.400670 632.759894
-3.335850 -1200.397094 632.879265
-3.342391 -1202.393517 632.998636
-3.348932 -1204.389941 633.118007
-3.355473 -1206.386365 633.237378
-3.362014 -1208.382788 633.356749
-3.368555 -1210.379212 633.476121
-3.375095 -1212.375636 633.595492
-3.381636 -1214.372060 633.714863
-3.388177 -1216.368483 633.834234
-3.394718 -1218.364907 633.953605
-3.401259 -1220.361331 634.072976
-3.407800 -1222.357755 634.192347
-3.414341 -1224.354178 634.311718
-3.420882 -1226.350602 634.431089
-3.427422 -1228.347026 634.550461
-3.433963 -1230.343450 634.669832
-3.440504 -1232.339873 634.789203
-3.447045 -1234.336297 634.908574
-3.453586 -1236.332721 635.027945
-3.460127 -1238.329145 635.147316
-3.466668 -1240.325568 635.266687
-3.473209 -1242.321992 635.386058
-3.479750 -1244.318416 635.505429
-3.486290 -1246.314840 635.624801
-3.492831 -1248.311263 635.744172
-3.499372 -1250.307687 635.863543
-3.505913 -1252.304111 635.982914
-3.512454 -1254.300535 636.102285
-3.518995 -1256.296958 636.221656
-3.525536 -1258.293382 636.341027
-3.532077 -1260.289806 636.460398
-3.538618 -1262.286229 636.579769
-3.545158 -1264.282653 636.699140
-3.551699 -1266.279077 636.818512
-3.558240 -1268.275501 636.937883
-3.564781 -1270.271924 637.057254
-3.571322 -1272.268348 637.176625
-3.577863 -1274.264772 637.295996
-3.584404 -1276.261196 637.415367
-3.590945 -1278.257619 637.534738
-3.597485 -1280.254043 637.654109
-3.604026 -1282.250467 637.773480
-3.610567 -1284.246891 637.892852
-3.617108 -1286.243314 638.012223
-3.623649 -1288.239738 638.131594
-3.630190 -1290.236162 638.250965
-3.636731 -1292.232586 638.370336
-3.643272 -1294.229009 638.489707
-3.649813 -1296.225433 638.609078
-3.656353 -1298.221857 638.728449
-3.662894 -1300.218281 638.847820
-3.669435 -1302.214704 638.967192
-3.675976 -1304.211128 639.086563
-3.682517 -1306.207552 639.205934
-3.689058 -1308.203976 639.325305
-3.695599 -1310.200399 639.444676
-3.702140 -1312.196823 639.564047
-3.708680 -1314.193247 639.683418
-3.715221 -1316.189671 639.802789
-3.721762 -1318.186094 639.922160
-3.728303 -1320.182518 640.041532
-3.734844 -1322.178942 640.160903
-3.741385 -1324.175365 640.280274
-3.747926 -1326.171789 640.399645
-3.754467 -1328.168213 640.519016
-3.761008 -1330.164637 640.638387
-3.767548 -1332.161060 640.757758
-3.774089 -1334.157484 640.877129
-3.780630 -1336.153908 640.996500
-3.787171 -1338.150332 641.115871
-3.793712 -1340.146755 641.235243
-3.800253 -1342.143179 641.354614
-3.806794 -1344.139603 641.473985
-3.813335 -1346.136027 641.593356
-3.819875 -1348.132450 641.712727
-3.826416 -1350.128874 641.832098
-3.832957 -1352.125298 641.951469
-3.839498 -1354.121722 642.070840
-3.846039 -1356.118145 642.190211
-3.852580 -1358.114569 642.309583
-3.859121 -1360.110993 642.428954
-3.865662 -1362.107417 642.548325
-3.872203 -1364.103840 642.667696
-3.878743 -1366.100264 642.787067
-3.885284 -1368.096688 642.906438
-3.891825 -1370.093112 643.025809
-3.898366 -1372.089535 643.145180
-3.904907 -1374.085959 643.264551
-3.911448 -1376.082383 643.383923
-3.917989 -1378.078807 643.503294
-3.924530 -1380.075230 643.622665
-3.931070 -1382.071654 643.742036
-3.937611 -1384.068078 643.861407
-3.944152 -1386.064501 643.980778
-3.950693 -1388.060925 644.100149
-3.957234 -1390.057349 644.219520
-3.963775 -1392.053773 644.338891
-3.970316 -1394.050196 644.458263
-3.976857 -1396.046620 644.577634
-3.983398 -1398.043044 644.697005
-3.989938 -1400.039468 644.816376
-3.996479 -1402.035891 644.935747
-4.003020 -1404.032315 645.055118
-4.009561 -1406.028739 645.174489
-4.016102 -1408.025163 645.293860
-4.022643 -1410.021586 645.413231
-4.029184 -1412.018010 645.532602
-4.035725 -1414.014434 645.651974
-4.042265 -1416.010858 645.771345
-4.048806 -1418.007281 645.890716
-4.055347 -1420.003705 646.010087
-4.061888 -1422.000129 646.129458
-4.068429 -1423.996553 646.248829
-4.074970 -1425.992976 646.368200
-4.081511 -1427.989400 646.487571
-4.088052 -1429.985824 646.606942
-4.094593 -1431.982248 646.726314
-4.101133 -1433.978671 646.845685
-4.107674 -1435.975095 646.965056
-4.114215 -1437.971519 647.084427
-4.120756 -1439.967942 647.203798
-4.127297 -1441.964366 647.323169
-4.133838 -1443.960790 647.442540
-4.140379 -1445.957214 647.561911
-4.146920 -1447.953637 647.681282
-4.153460 -1449.950061 647.800654
-4.160001 -1451.946485 647.920025
-4.166542 -1453.942909 648.039396
-4.173083 -1455.939332 648.158767
-4.179624 -1457.935756 648.278138
-4.186165 -1459.932180 648.397509
-4.192706 -1461.928604 648.516880
-4.199247 -1463.925027 648.636251
-4.205788 -1465.921451 648.755622
-4.212328 -1467.917875 648.874993
-4.218869 -1469.914299 648.994365
-4.225410 -1471.910722 649.113736
-4.231951 -1473.907146 649.233107
-4.238492 -1475.903570 649.352478
-4.245033 -1477.899994 649.471849
-4.251574 -1479.896417 649.591220
-4.258115 -1481.892841 649.710591
-4.264655 -1483.889265 649.829962
-4.271196 -1485.885689 649.949333
-4.277737 -1487.882112 650.068705
-4.284278 -1489.878536 650.188076
-4.290819 -1491.874960 650.307447
-4.297360 -1493.871384 650.426818
-4.303901 -1495.867807 650.546189
-4.310442 -1497.864231 650.665560
-4.316983 -1499.860655 650.784931
-4.323523 -1501.857078 650.904302
-4.330064 -1503.853502 651.023673
-4.336605 -1505.849926 651.143045
-4.343146 -1507.846350 651.262416
-4.349687 -1509.842773 651.381787
-4.356228 -1511.839197 651.501158
-4.362769 -1513.835621 651.620529
-4.369310 -1515.832045 651.739900
-4.375850 -1517.828468 651.859271
-4.382391 -1519.824892 651.978642
-4.388932 -1521.821316 652.098013
-4.395473 -1523.817740 652.217385
-4.402014 -1525.814163 652.336756
-4.408555 -1527.810587 652.456127
-4.415096 -1529.807011 652.575498
-4.421637 -1531.803435 652.694869
-4.428178 -1533.799858 652.814240
-4.434718 -1535.796282 652.933611
-4.441259 -1537.792706 653.052982
-4.447800 -1539.789130 653.172353
-4.454341 -1541.785553 653.291724
-4.460882 -1543.781977 653.411096
-4.467423 -1545.778401 653.530467
-4.473964 -1547.774825 653.649838
-4.480505 -1549.771248 653.769209
-4.487045 -1551.767672 653.888580
-4.493586 -1553.764096 654.007951
-4.500127 -1555.760519 654.127322
-4.506668 -1557.756943 654.246693
-4.513209 -1559.753367 654.366064
-4.519750 -1561.749791 654.485436
-4.526291 -1563.746214 654.604807
-4.532832 -1565.742638 654.724178
-4.539373 -1567.739062 654.843549
-4.545913 -1569.735486 654.962920
-4.552454 -1571.731909 655.082291
-4.558995 -1573.728333 655.201662
-4.565536 -1575.724757 655.321033
-4.572077 -1577.721181 655.440404
-4.578618 -1579.717604 655.559776
-4.585159 -1581.714028 655.679147
-4.591700 -1583.710452 655.798518
-4.598240 -1585.706876 655.917889
-4.604781 -1587.703299 656.037260
-4.611322 -1589.699723 656.156631
-4.617863 -1591.696147 656.276002
-4.624404 -1593.692571 656.395373
-4.630945 -1595.688994 656.514744
-4.637486 -1597.685418 656.634116
-4.644027 -1599.681842 656.753487
-4.650568 -1601.678266 656.872858
-4.657108 -1603.674689 656.992229
-4.663649 -1605.671113 657.111600
-4.670190 -1607.667537 657.230971
-4.676731 -1609.663961 657.350342
-4.683272 -1611.660384 657.469713
-4.689813 -1613.656808 657.589084
-4.696354 -1615.653232 657.708455
-4.702895 -1617.649655 657.827827
-4.709435 -1619.646079 657.947198
-4.715976 -1621.642503 658.066569
-4.722517 -1623.638927 658.185940
-4.729058 -1625.635350 658.305311
-4.735599 -1627.631774 658.424682
-4.742140 -1629.628198 658.544053
-4.748681 -1631.624622 658.663424
-4.755222 -1633.621045 658.782795
-4.761763 -1635.617469 658.902167
-4.768303 -1637.613893 659.021538
-4.774844 -1639.610317 659.140909
-4.781385 -1641.606740 659.260280
-4.787926 -1643.603164 659.379651
-4.794467 -1645.599588 659.499022
-4.801008 -1647.596012 659.618393
-4.807549 -1649.592435 659.737764
-4.814090 -1651.588859 659.857135
-4.820630 -1653.585283 659.976507
-4.827171 -1655.581707 660.095878
-4.833712 -1657.578130 660.215249
-4.840253 -1659.574554 660.334620
-4.846794 -1661.570978 660.453991
-4.853335 -1663.567402 660.573362
-4.859876 -1665.563825 660.692733
-4.866417 -1667.560249 660.812104
-4.872958 -1669.556673 660.931475
-4.879498 -1671.553096 661.050847
-4.886039 -1673.549520 661.170218
-4.892580 -1675.545944 661.289589
-4.899121 -1677.542368 661.408960
-4.905662 -1679.538791 661.528331
-4.912203 -1681.535215 661.647702
-4.918744 -1683.531639 661.767073
-4.925285 -1685.528063 661.886444
-4.931825 -1687.524486 662.005815
-4.938366 -1689.520910 662.125186
-4.944907 -1691.517334 662.244558
-4.951448 -1693.513758 662.363929
-4.957989 -1695.510181 662.483300
-4.964530 -1697.506605 662.602671
-4.971071 -1699.503029 662.722042
-4.977612 -1701.499453 662.841413
-4.984153 -1703.495876 662.960784
-4.990693 -1705.492300 663.080155
-4.997234 -1707.488724 663.199526
-5.003775 -1709.485148 663.318898
-5.010316 -1711.481571 663.438269
-5.016857 -1713.477995 663.557640
-5.023398 -1715.474419 663.677011
-5.029939 -1717.470843 663.796382
-5.036480 -1719.467266 663.915753
-5.043021 -1721.463690 664.035124
-5.049561 -1723.460114 664.154495
-5.056102 -1725.456538 664.273866
-5.062643 -1727.452961 664.393238
-5.069184 -1729.449385 664.512609
-5.075725 -1731.445809 664.631980
-5.082266 -1733.442232 664.751351
-5.088807 -1735.438656 664.870722
-5.095348 -1737.435080 664.990093
-5.101888 -1739.431504 665.109464
-5.108429 -1741.427927 665.228835
-5.114970 -1743.424351 665.348206
-5.121511 -1745.420775 665.467577
-5.128052 -1747.417199 665.586949
-5.134593 -1749.413622 665.706320
-5.141134 -1751.410046 665.825691
-5.147675 -1753.406470 665.945062
-5.154216 -1755.402894 666.064433
-5.160756 -1757.399317 666.183804
-5.167297 -1759.395741 666.303175
-5.173838 -1761.392165 666.422546
-5.180379 -1763.388589 666.541917
-5.186920 -1765.385012 666.661289
-5.193461 -1767.381436 666.780660
-5.200002 -1769.377860 666.900031
-5.206543 -1771.374284 667.019402
-5.213083 -1773.370707 667.138773
-5.219624 -1775.367131 667.258144
-5.226165 -1777.363555 667.377515
-5.232706 -1779.359979 667.496886
-5.239247 -1781.356402 667.616257
-5.245788 -1783.352826 667.735629
-5.252329 -1785.349250 667.855000
-5.258870 -1787.345673 667.974371
-5.265411 -1789.342097 668.093742
-5.271951 -1791.338521 668.213113
-5.278492 -1793.334945 668.332484
-5.285033 -1795.331368 668.451855
-5.291574 -1797.327792 668.571226
-5.298115 -1799.324216 668.690597
-5.304656 -1801.320640 668.809969
-5.311197 -1803.317063 668.929340
-5.317738 -1805.313487 669.048711
-5.324278 -1807.309911 669.168082
-5.330819 -1809.306335 669.287453
-5.337360 -1811.302758 669.406824
-5.343901 -1813.299182 669.526195
-5.350442 -1815.295606 669.645566
-5.356983 -1817.292030 669.764937
-5.363524 -1819.288453 669.884308
-5.370065 -1821.284877 670.003680
-5.376606 -1823.281301 670.123051
-5.383146 -1825.277725 670.242422
-5.389687 -1827.274148 670.361793
-5.396228 -1829.270572 670.481164
-5.402769 -1831.266996 670.600535
-5.409310 -1833.263420 670.719906
-5.415851 -1835.259843 670.839277
-5.422392 -1837.256267 670.958648
-5.428933 -1839.252691 671.078020
-5.435473 -1841.249115 671.197391
-5.442014 -1843.245538 671.316762
-5.448555 -1845.241962 671.436133
-5.455096 -1847.238386 671.555504
-5.461637 -1849.234809 671.674875
-5.468178 -1851.231233 671.794246
-5.474719 -1853.227657 671.913617
-5.481260 -1855.224081 672.032988
-5.487801 -1857.220504 672.152360
-5.494341 -1859.216928 672.271731
-5.500882 -1861.213352 672.391102
-5.507423 -1863.209776 672.510473
-5.513964 -1865.206199 672.629844
-5.520505 -1867.202623 672.749215
-5.527046 -1869.199047 672.868586
-5.533587 -1871.195471 672.987957
-5.540128 -1873.191894 673.107328
-5.546668 -1875.188318 673.226700
-5.553209 -1877.184742 673.346071
-5.559750 -1879.181166 673.465442
-5.566291 -1881.177589 673.584813
-5.572832 -1883.174013 673.704184
-5.579373 -1885.170437 673.823555
-5.585914 -1887.166861 673.942926
-5.592455 -1889.163284 674.062297
-5.598996 -1891.159708 674.181668
-5.605536 -1893.156132 674.301039
-5.612077 -1895.152556 674.420411
-5.618618 -1897.148979 674.539782
-5.625159 -1899.145403 674.659153
-5.631700 -1901.141827 674.778524
-5.638241 -1903.138251 674.897895
-5.644782 -1905.134674 675.017266
-5.651323 -1907.131098 675.136637
-5.657863 -1909.127522 675.256008
-5.664404 -1911.123945 675.375379
-5.670945 -1913.120369 675.494751
-5.677486 -1915.116793 675.614122
-5.684027 -1917.113217 675.733493
-5.690568 -1919.109640 675.852864
-5.697109 -1921.106064 675.972235
-5.703650 -1923.102488 676.091606
-5.710191 -1925.098912 676.210977
-5.716731 -1927.095335 676.330348
-5.723272 -1929.091759 676.449719
-5.729813 -1931.088183 676.569091
-5.736354 -1933.084607 676.688462
-5.742895 -1935.081030 676.807833
-5.749436 -1937.077454 676.927204
-5.755977 -1939.073878 677.046575
-5.762518 -1941.070302 677.165946
-5.769058 -1943.066725 677.285317
-5.775599 -1945.063149 677.404688
-5.782140 -1947.059573 677.524059
-5.788681 -1949.055997 677.643431
-5.795222 -1951.052420 677.762802
-5.801763 -1953.048844 677.882173
-5.808304 -1955.045268 678.001544
-5.814845 -1957.041692 678.120915
-5.821386 -1959.038115 678.240286
-5.827926 -1961.034539 678.359657
-5.834467 -1963.030963 678.479028
-5.841008 -1965.027386 678.598399
-5.847549 -1967.023810 678.717770
-5.854090 -1969.020234 678.837142
-5.860631 -1971.016658 678.956513
-5.867172 -1973.013081 679.075884
-5.873713 -1975.009505 679.195255
-5.880253 -1977.005929 679.314626
-5.886794 -1979.002353 679.433997
-5.893335 -1980.998776 679.553368
-5.899876 -1982.995200 679.672739
-5.906417 -1984.991624 679.792110
-5.912958 -1986.988048 679.911482
-5.919499 -1988.984471 680.030853
-5.926040 -1990.980895 680.150224
-5.932581 -1992.977319 680.269595
-5.939121 -1994.973743 680.388966
-5.945662 -1996.970166 680.508337
-5.952203 -1998.966590 680.627708
-5.958744 -2000.963014 680.747079
-5.965285 -2002.959438 680.866450
-5.971826 -2004.955861 680.985822
-5.978367 -2006.952285 681.105193
-5.984908 -2008.948709 681.224564
-5.991448 -2010.945133 681.343935
-5.997989 -2012.941556 681.463306
-6.004530 -2014.937980 681.582677
-6.011071 -2016.934404 681.702048
-6.017612 -2018.930828 681.821419
-6.024153 -2020.927251 681.940790
-6.030694 -2022.923675 682.060161
-6.037235 -2024.920099 682.179533
-6.043776 -2026.916522 682.298904
-6.050316 -2028.912946 682.418275
-6.056857 -2030.909370 682.537646
-6.063398 -2032.905794 682.657017
-6.069939 -2034.902217 682.776388
-6.076480 -2036.898641 682.895759
-6.083021 -2038.895065 683.015130
-6.089562 -2040.891489 683.134501
-6.096103 -2042.887912 683.253873
-6.102643 -2044.884336 683.373244
-6.109184 -2046.880760 683.492615
-6.115725 -2048.877184 683.611986
-6.122266 -2050.873607 683.731357
-6.128807 -2052.870031 683.850728
-6.135348 -2054.866455 683.970099
-6.141889 -2056.862879 684.089470
-6.148430 -2058.859302 684.208841
-6.154971 -2060.855726 684.328213
-6.161511 -2062.852150 684.447584
-6.168052 -2064.848574 684.566955
-6.174593 -2066.844997 684.686326
-6.181134 -2068.841421 684.805697
-6.187675 -2070.837845 684.925068
-6.194216 -2072.834269 685.044439
-6.200757 -2074.830692 685.163810
-6.207298 -2076.827116 685.283181
-6.213838 -2078.823540 685.402553
-6.220379 -2080.819963 685.521924
-6.226920 -2082.816387 685.641295
-6.233461 -2084.812811 685.760666
-6.240002 -2086.809235 685.880037
-6.246543 -2088.805658 685.999408
-6.253084 -2090.802082 686.118779
-6.259625 -2092.798506 686.238150
-6.266166 -2094.794930 686.357521
-6.272706 -2096.791353 686.476892
-6.279247 -2098.787777 686.596264
-6.285788 -2100.784201 686.715635
-6.292329 -2102.780625 686.835006
-6.298870 -2104.777048 686.954377
-6.305411 -2106.773472 687.073748
-6.311952 -2108.769896 687.193119
-6.318493 -2110.766320 687.312490
-6.325033 -2112.762743 687.431861
-6.331574 -2114.759167 687.551232
-6.338115 -2116.755591 687.670604
-6.344656 -2118.752015 687.789975
-6.351197 -2120.748438 687.909346
-6.357738 -2122.744862 688.028717
-6.364279 -2124.741286 688.148088
-6.370820 -2126.737710 688.267459
-6.377361 -2128.734133 688.386830
-6.383901 -2130.730557 688.506201
-6.390442 -2132.726981 688.625572
-6.396983 -2134.723405 688.744944
-6.403524 -2136.719828 688.864315
-6.410065 -2138.716252 688.983686
-6.416606 -2140.712676 689.103057
-6.423147 -2142.709099 689.222428
-6.429688 -2144.705523 689.341799
-6.436229 -2146.701947 689.461170
-6.442769 -2148.698371 689.580541
-6.449310 -2150.694794 689.699912
-6.455851 -2152.691218 689.819284
-6.462392 -2154.687642 689.938655
-6.468933 -2156.684066 690.058026
-6.475474 -2158.680489 690.177397
-6.482015 -2160.676913 690.296768
-6.488556 -2162.673337 690.416139
-6.495096 -2164.669761 690.535510
-6.501637 -2166.666184 690.654881
-6.508178 -2168.662608 690.774252
-6.514719 -2170.659032 690.893623
-6.521260 -2172.655456 691.012995
-6.527801 -2174.651879 691.132366
-6.534342 -2176.648303 691.251737
-6.540883 -2178.644727 691.371108
-6.547424 -2180.641151 691.490479
-6.553964 -2182.637574 691.609850
-6.560505 -2184.633998 691.729221
-6.567046 -2186.630422 691.848592
-6.573587 -2188.626846 691.967963
-6.580128 -2190.623269 692.087335
-6.586669 -2192.619693 692.206706
-6.593210 -2194.616117 692.326077
-6.599751 -2196.612540 692.445448
-6.606291 -2198.608964 692.564819
-6.612832 -2200.605388 692.684190
-6.619373 -2202.601812 692.803561
-6.625914 -2204.598235 692.922932
-6.632455 -2206.594659 693.042303
-6.638996 -2208.591083 693.161675
-6.645537 -2210.587507 693.281046
-6.652078 -2212.583930 693.400417
-6.658619 -2214.580354 693.519788
-6.665159 -2216.576778 693.639159
-6.671700 -2218.573202 693.758530
-6.678241 -2220.569625 693.877901
-6.684782 -2222.566049 693.997272
-6.691323 -2224.562473 694.116643
-6.697864 -2226.558897 694.236015
-6.704405 -2228.555320 694.355386
-6.710946 -2230.551744 694.474757
-6.717486 -2232.548168 694.594128
-6.724027 -2234.544592 694.713499
-6.730568 -2236.541015 694.832870
-6.737109 -2238.537439 694.952241
-6.743650 -2240.533863 695.071612
-6.750191 -2242.530287 695.190983
-6.756732 -2244.526710 695.310354
-6.763273 -2246.523134 695.429726
-6.769814 -2248.519558 695.549097
-6.776354 -2250.515982 695.668468
-6.782895 -2252.512405 695.787839
-6.789436 -2254.508829 695.907210
-6.795977 -2256.505253 696.026581
-6.802518 -2258.501676 696.145952
-6.809059 -2260.498100 696.265323
-6.815600 -2262.494524 696.384694
-6.822141 -2264.490948 696.504066
-6.828681 -2266.487371 696.623437
-6.835222 -2268.483795 696.742808
-6.841763 -2270.480219 696.862179
-6.848304 -2272.476643 696.981550
-6.854845 -2274.473066 697.100921
-6.861386 -2276.469490 697.220292
-6.867927 -2278.465914 697.339663
-6.874468 -2280.462338 697.459034
-6.881009 -2282.458761 697.578406
-6.887549 -2284.455185 697.697777
-6.894090 -2286.451609 697.817148
-6.900631 -2288.448033 697.936519
-6.907172 -2290.444456 698.055890
-6.913713 -2292.440880 698.175261
-6.920254 -2294.437304 698.294632
-6.926795 -2296.433728 698.414003
-6.933336 -2298.430151 698.533374
-6.939876 -2300.426575 698.652745
-6.946417 -2302.422999 698.772117
-6.952958 -2304.419423 698.891488
-6.959499 -2306.415846 699.010859
-6.966040 -2308.412270 699.130230
-6.972581 -2310.408694 699.249601
-6.979122 -2312.405118 699.368972
-6.985663 -2314.401541 699.488343
-6.992204 -2316.397965 699.607714
-6.998744 -2318.394389 699.727085
-7.005285 -2320.390812 699.846457
-7.011826 -2322.387236 699.965828
-7.018367 -2324.383660 700.085199
-7.024908 -2326.380084 700.204570
-7.031449 -2328.376507 700.323941
-7.037990 -2330.372931 700.443312
-7.044531 -2332.369355 700.562683
-7.051071 -2334.365779 700.682054
-7.057612 -2336.362202 700.801425
-7.064153 -2338.358626 700.920797
-7.070694 -2340.355050 701.040168
-7.077235 -2342.351474 701.159539
-7.083776 -2344.347897 701.278910
-7.090317 -2346.344321 701.398281
-7.096858 -2348.340745 701.517652
-7.103399 -2350.337169 701.637023
-7.109939 -2352.333592 701.756394
-7.116480 -2354.330016 701.875765
-7.123021 -2356.326440 701.995137
-7.129562 -2358.322864 702.114508
-7.136103 -2360.319287 702.233879
-7.142644 -2362.315711 702.353250
-7.149185 -2364.312135 702.472621
-7.155726 -2366.308559 702.591992
-7.162266 -2368.304982 702.711363
-7.168807 -2370.301406 702.830734
-7.175348 -2372.297830 702.950105
-7.181889 -2374.294253 703.069476
-7.188430 -2376.290677 703.188848
-7.194971 -2378.287101 703.308219
-7.201512 -2380.283525 703.427590
-7.208053 -2382.279948 703.546961
-7.214594 -2384.276372 703.666332
-7.221134 -2386.272796 703.785703
-7.227675 -2388.269220 703.905074
-7.234216 -2390.265643 704.024445
-7.240757 -2392.262067 704.143816
-7.247298 -2394.258491 704.263188
-7.253839 -2396.254915 704.382559
-7.260380 -2398.251338 704.501930
-7.266921 -2400.247762 704.621301
-7.273461 -2402.244186 704.740672
-7.280002 -2404.240610 704.860043
-7.286543 -2406.237033 704.979414
-7.293084 -2408.233457 705.098785
-7.299625 -2410.229881 705.218156
-7.306166 -2412.226305 705.337528
-7.312707 -2414.222728 705.456899
-7.319248 -2416.219152 705.576270
-7.325789 -2418.215576 705.695641
-7.332329 -2420.212000 705.815012
-7.338870 -2422.208423 705.934383
-7.345411 -2424.204847 706.053754
-7.351952 -2426.201271 706.173125
-7.358493 -2428.197695 706.292496
-7.365034 -2430.194118 706.411868
-7.371575 -2432.190542 706.531239
-7.378116 -2434.186966 706.650610
-7.384656 -2436.183389 706.769981
-7.391197 -2438.179813 706.889352
-7.397738 -2440.176237 707.008723
-7.404279 -2442.172661 707.128094
-7.410820 -2444.169084 707.247465
-7.417361 -2446.165508 707.366836
-7.423902 -2448.161932 707.486207
-7.430443 -2450.158356 707.605579
-7.436984 -2452.154779 707.724950
-7.443524 -2454.151203 707.844321
-7.450065 -2456.147627 707.963692
-7.456606 -2458.144051 708.083063
-7.463147 -2460.140474 708.202434
-7.469688 -2462.136898 708.321805
-7.476229 -2464.133322 708.441176
-7.482770 -2466.129746 708.560547
-7.489311 -2468.126169 708.679919
-7.495851 -2470.122593 708.799290
-7.502392 -2472.119017 708.918661
-7.508933 -2474.115441 709.038032
-7.515474 -2476.111864 709.157403
