150.342778 -198.920833 56.248807
149.633658 -197.058289 56.081241
148.924539 -195.195745 55.913675
148.215419 -193.333200 55.746109
147.506300 -191.470656 55.578544
146.797181 -189.608112 55.410978
146.088061 -187.745567 55.243412
145.378942 -185.883023 55.075846
144.000000 -182.261150 54.750000
143.907390 -182.173750 56.745942
143.814780 -182.086350 58.741884
143.722169 -181.998951 60.737826
143.629559 -181.911551 62.733768
143.536949 -181.824151 64.729710
143.444339 -181.736751 66.725652
143.351729 -181.649351 68.721594
143.259119 -181.561952 70.717536
143.166508 -181.474552 72.713478
143.073898 -181.387152 74.709420
142.981288 -181.299752 76.705362
142.888678 -181.212353 78.701305
142.796068 -181.124953 80.697247
142.703458 -181.037553 82.693189
142.610847 -180.950153 84.689131
142.518237 -180.862754 86.685073
142.425627 -180.775354 88.681015
142.333017 -180.687954 90.676957
142.240407 -180.600554 92.672899
142.147797 -180.513154 94.668841
142.055186 -180.425755 96.664783
141.962576 -180.338355 98.660725
141.869966 -180.250955 100.656667
141.777356 -180.163555 102.652609
141.684746 -180.076156 104.648551
141.592136 -179.988756 106.644493
141.499525 -179.901356 108.640435
141.406915 -179.813956 110.636377
141.314305 -179.726556 112.632319
141.221695 -179.639157 114.628261
141.129085 -179.551757 116.624203
141.036475 -179.464357 118.620145
140.943864 -179.376957 120.616087
140.851254 -179.289558 122.612029
140.758644 -179.202158 124.607971
140.666034 -179.114758 126.603914
140.573424 -179.027358 128.599856
140.480814 -178.939958 130.595798
140.388203 -178.852559 132.591740
140.295593 -178.765159 134.587682
140.202983 -178.677759 136.583624
140.110373 -178.590359 138.579566
140.017763 -178.502960 140.575508
139.925153 -178.415560 142.571450
139.832542 -178.328160 144.567392
139.739932 -178.240760 146.563334
139.647322 -178.153360 148.559276
139.554712 -178.065961 150.555218
139.462102 -177.978561 152.551160
139.369492 -177.891161 154.547102
139.276881 -177.803761 156.543044
139.184271 -177.716362 158.538986
139.091661 -177.628962 160.534928
138.999051 -177.541562 162.530870
138.906441 -177.454162 164.526812
138.813831 -177.366763 166.522754
138.721220 -177.279363 168.518696
138.628610 -177.191963 170.514638
138.536000 -177.104563 172.510580
138.443390 -177.017163 174.506523
138.350780 -176.929764 176.502465
138.258170 -176.842364 178.498407
138.165559 -176.754964 180.494349
138.072949 -176.667564 182.490291
137.980339 -176.580165 184.486233
137.887729 -176.492765 186.482175
137.795119 -176.405365 188.478117
137.702509 -176.317965 190.474059
137.609898 -176.230565 192.470001
137.517288 -176.143166 194.465943
137.424678 -176.055766 196.461885
137.332068 -175.968366 198.457827
137.239458 -175.880966 200.453769
137.146848 -175.793567 202.449711
137.054237 -175.706167 204.445653
136.961627 -175.618767 206.441595
136.869017 -175.531367 208.437537
136.776407 -175.443967 210.433479
136.683797 -175.356568 212.429421
136.591187 -175.269168 214.425363
136.498576 -175.181768 216.421305
136.405966 -175.094368 218.417247
136.313356 -175.006969 220.413190
136.220746 -174.919569 222.409132
136.128136 -174.832169 224.405074
136.035526 -174.744769 226.401016
135.942915 -174.657369 228.396958
135.850305 -174.569970 230.392900
135.757695 -174.482570 232.388842
135.665085 -174.395170 234.384784
135.572475 -174.307770 236.380726
135.479865 -174.220371 238.376668
135.387254 -174.132971 240.372610
135.294644 -174.045571 242.368552
135.202034 -173.958171 244.364494
135.109424 -173.870772 246.360436
135.016814 -173.783372 248.356378
134.924204 -173.695972 250.352320
134.831593 -173.608572 252.348262
134.738983 -173.521172 254.344204
134.646373 -173.433773 256.340146
134.553763 -173.346373 258.336088
134.461153 -173.258973 260.332030
134.368543 -173.171573 262.327972
134.275932 -173.084174 264.323914
134.183322 -172.996774 266.319856
134.090712 -172.909374 268.315799
133.998102 -172.821974 270.311741
133.905492 -172.734574 272.307683
133.812882 -172.647175 274.303625
133.720271 -172.559775 276.299567
133.627661 -172.472375 278.295509
133.535051 -172.384975 280.291451
133.442441 -172.297576 282.287393
133.349831 -172.210176 284.283335
133.257221 -172.122776 286.279277
133.164610 -172.035376 288.275219
133.072000 -171.947976 290.271161
132.979390 -171.860577 292.267103
132.886780 -171.773177 294.263045
132.794170 -171.685777 296.258987
132.701560 -171.598377 298.254929
132.608949 -171.510978 300.250871
132.516339 -171.423578 302.246813
132.423729 -171.336178 304.242755
132.331119 -171.248778 306.238697
132.238509 -171.161379 308.234639
132.145899 -171.073979 310.230581
132.053288 -170.986579 312.226523
131.960678 -170.899179 314.222466
131.868068 -170.811779 316.218408
131.775458 -170.724380 318.214350
131.682848 -170.636980 320.210292
131.590238 -170.549580 322.206234
131.497627 -170.462180 324.202176
131.405017 -170.374781 326.198118
131.312407 -170.287381 328.194060
131.219797 -170.199981 330.190002
131.127187 -170.112581 332.185944
131.034577 -170.025181 334.181886
130.941966 -169.937782 336.177828
130.849356 -169.850382 338.173770
130.756746 -169.762982 340.169712
130.664136 -169.675582 342.165654
130.571526 -169.588183 344.161596
130.478916 -169.500783 346.157538
130.386305 -169.413383 348.153480
130.293695 -169.325983 350.149422
130.201085 -169.238583 352.145364
130.108475 -169.151184 354.141306
130.015865 -169.063784 356.137248
129.923255 -168.976384 358.133190
129.830644 -168.888984 360.129132
129.738034 -168.801585 362.125075
129.645424 -168.714185 364.121017
129.552814 -168.626785 366.116959
129.460204 -168.539385 368.112901
129.367594 -168.451985 370.108843
129.274983 -168.364586 372.104785
129.182373 -168.277186 374.100727
129.089763 -168.189786 376.096669
128.997153 -168.102386 378.092611
128.904543 -168.014987 380.088553
128.811933 -167.927587 382.084495
128.719322 -167.840187 384.080437
128.626712 -167.752787 386.076379
128.534102 -167.665388 388.072321
128.441492 -167.577988 390.068263
128.348882 -167.490588 392.064205
128.256272 -167.403188 394.060147
128.163661 -167.315788 396.056089
128.071051 -167.228389 398.052031
127.978441 -167.140989 400.047973
127.885831 -167.053589 402.043915
127.793221 -166.966189 404.039857
127.700611 -166.878790 406.035799
127.608000 -166.791390 408.031741
127.515390 -166.703990 410.027684
127.422780 -166.616590 412.023626
127.330170 -166.529190 414.019568
127.237560 -166.441791 416.015510
127.144950 -166.354391 418.011452
127.052339 -166.266991 420.007394
126.959729 -166.179591 422.003336
126.867119 -166.092192 423.999278
126.774509 -166.004792 425.995220
126.681899 -165.917392 427.991162
126.589289 -165.829992 429.987104
126.496678 -165.742592 431.983046
126.404068 -165.655193 433.978988
126.311458 -165.567793 435.974930
126.218848 -165.480393 437.970872
126.126238 -165.392993 439.966814
126.033628 -165.305594 441.962756
125.941017 -165.218194 443.958698
125.848407 -165.130794 445.954640
125.755797 -165.043394 447.950582
125.663187 -164.955994 449.946524
125.570577 -164.868595 451.942466
125.477967 -164.781195 453.938408
125.385356 -164.693795 455.934351
125.292746 -164.606395 457.930293
125.200136 -164.518996 459.926235
125.107526 -164.431596 461.922177
125.014916 -164.344196 463.918119
124.922306 -164.256796 465.914061
124.829695 -164.169397 467.910003
124.737085 -164.081997 469.905945
124.644475 -163.994597 471.901887
124.551865 -163.907197 473.897829
124.459255 -163.819797 475.893771
124.366645 -163.732398 477.889713
124.274034 -163.644998 479.885655
124.181424 -163.557598 481.881597
124.088814 -163.470198 483.877539
123.996204 -163.382799 485.873481
123.903594 -163.295399 487.869423
123.810984 -163.207999 489.865365
123.718373 -163.120599 491.861307
123.625763 -163.033199 493.857249
123.533153 -162.945800 495.853191
123.440543 -162.858400 497.849133
123.347933 -162.771000 499.845075
123.255323 -162.683600 501.841017
123.162712 -162.596201 503.836960
123.070102 -162.508801 505.832902
122.977492 -162.421401 507.828844
122.884882 -162.334001 509.824786
122.792272 -162.246601 511.820728
122.699662 -162.159202 513.816670
122.607051 -162.071802 515.812612
122.514441 -161.984402 517.808554
122.421831 -161.897002 519.804496
122.329221 -161.809603 521.800438
122.236611 -161.722203 523.796380
122.144001 -161.634803 525.792322
122.051390 -161.547403 527.788264
121.958780 -161.460003 529.784206
121.866170 -161.372604 531.780148
121.773560 -161.285204 533.776090
121.680950 -161.197804 535.772032
121.588340 -161.110404 537.767974
121.495729 -161.023005 539.763916
121.403119 -160.935605 541.759858
121.310509 -160.848205 543.755800
121.217899 -160.760805 545.751742
121.125289 -160.673406 547.747684
121.032679 -160.586006 549.743626
120.940068 -160.498606 551.739569
120.847458 -160.411206 553.735511
120.754848 -160.323806 555.731453
120.662238 -160.236407 557.727395
120.569628 -160.149007 559.723337
120.477018 -160.061607 561.719279
120.384407 -159.974207 563.715221
120.291797 -159.886808 565.711163
120.199187 -159.799408 567.707105
120.106577 -159.712008 569.703047
120.000000 -159.611427 572.000000
118.421361 -160.555767 572.784935
116.842722 -161.500106 573.569870
115.264084 -162.444445 574.354805
113.685445 -163.388784 575.139741
112.106806 -164.333123 575.924676
110.528167 -165.277462 576.709611
108.949529 -166.221802 577.494546
107.370890 -167.166141 578.279481
105.792251 -168.110480 579.064416
104.213612 -169.054819 579.849352
102.634974 -169.999158 580.634287
101.056335 -170.943497 581.419222
99.477696 -171.887837 582.204157
97.899057 -172.832176 582.989092
96.320419 -173.776515 583.774027
94.741780 -174.720854 584.558963
93.163141 -175.665193 585.343898
91.584502 -176.609532 586.128833
90.005864 -177.553872 586.913768
88.427225 -178.498211 587.698703
86.848586 -179.442550 588.483638
85.269947 -180.386889 589.268574
83.691309 -181.331228 590.053509
82.112670 -182.275568 590.838444
80.534031 -183.219907 591.623379
78.955392 -184.164246 592.408314
77.376754 -185.108585 593.193249
75.798115 -186.052924 593.978185
74.219476 -186.997263 594.763120
72.640837 -187.941603 595.548055
71.062199 -188.885942 596.332990
69.483560 -189.830281 597.117925
67.904921 -190.774620 597.902860
66.326282 -191.718959 598.687796
64.747644 -192.663298 599.472731
63.169005 -193.607638 600.257666
61.590366 -194.551977 601.042601
60.011727 -195.496316 601.827536
58.433089 -196.440655 602.612471
56.854450 -197.384994 603.397407
55.275811 -198.329334 604.182342
53.697172 -199.273673 604.967277
52.118534 -200.218012 605.752212
50.539895 -201.162351 606.537147
48.961256 -202.106690 607.322082
47.382617 -203.051029 608.107018
45.803979 -203.995369 608.891953
44.225340 -204.939708 609.676888
42.646701 -205.884047 610.461823
41.068062 -206.828386 611.246758
39.489424 -207.772725 612.031693
37.910785 -208.717064 612.816629
36.332146 -209.661404 613.601564
34.753507 -210.605743 614.386499
33.174869 -211.550082 615.171434
31.596230 -212.494421 615.956369
30.017591 -213.438760 616.741304
28.438952 -214.383099 617.526240
26.860314 -215.327439 618.311175
25.281675 -216.271778 619.096110
23.703036 -217.216117 619.881045
22.124397 -218.160456 620.665980
20.545759 -219.104795 621.450915
18.967120 -220.049135 622.235851
17.388481 -220.993474 623.020786
15.809842 -221.937813 623.805721
14.231204 -222.882152 624.590656
12.652565 -223.826491 625.375591
11.073926 -224.770830 626.160526
9.495287 -225.715170 626.945462
7.916649 -226.659509 627.730397
6.338010 -227.603848 628.515332
4.759371 -228.548187 629.300267
3.180732 -229.492526 630.085202
1.602094 -230.436865 630.870137
0.023455 -231.381205 631.655073
-1.555184 -232.325544 632.440008
-3.133823 -233.269883 633.224943
-4.712461 -234.214222 634.009878
-6.291100 -235.158561 634.794813
-7.869739 -236.102901 635.579748
-9.448378 -237.047240 636.364684
-11.027016 -237.991579 637.149619
-12.605655 -238.935918 637.934554
-14.184294 -239.880257 638.719489
-15.762933 -240.824596 639.504424
-17.341571 -241.768936 640.289359
-18.920210 -242.713275 641.074295
-20.498849 -243.657614 641.859230
-22.077488 -244.601953 642.644165
-23.656126 -245.546292 643.429100
-25.234765 -246.490631 644.214035
-26.813404 -247.434971 644.998970
-28.392043 -248.379310 645.783906
-29.970681 -249.323649 646.568841
-31.549320 -250.267988 647.353776
-33.127959 -251.212327 648.138711
-34.706598 -252.156666 648.923646
-36.285236 -253.101006 649.708581
-37.863875 -254.045345 650.493517
-39.442514 -254.989684 651.278452
-41.021153 -255.934023 652.063387
-42.599791 -256.878362 652.848322
-44.178430 -257.822702 653.633257
-45.757069 -258.767041 654.418192
-47.335708 -259.711380 655.203128
-48.914346 -260.655719 655.988063
-50.492985 -261.600058 656.772998
-52.071624 -262.544397 657.557933
-53.650263 -263.488737 658.342868
-55.228901 -264.433076 659.127803
-56.807540 -265.377415 659.912739
-58.386179 -266.321754 660.697674
-59.964818 -267.266093 661.482609
-61.543456 -268.210432 662.267544
-63.122095 -269.154772 663.052479
-64.700734 -270.099111 663.837414
-66.279373 -271.043450 664.622350
-67.858011 -271.987789 665.407285
-69.436650 -272.932128 666.192220
-71.015289 -273.876468 666.977155
-72.593928 -274.820807 667.762090
-74.172566 -275.765146 668.547025
-75.751205 -276.709485 669.331961
-77.329844 -277.653824 670.116896
-78.908483 -278.598163 670.901831
-80.487121 -279.542503 671.686766
-82.065760 -280.486842 672.471701
-83.644399 -281.431181 673.256636
-85.223038 -282.375520 674.041572
-86.801676 -283.319859 674.826507
-88.380315 -284.264198 675.611442
-89.958954 -285.208538 676.396377
-91.537593 -286.152877 677.181312
-93.116231 -287.097216 677.966247
-94.694870 -288.041555 678.751183
-96.273509 -288.985894 679.536118
-97.852148 -289.930233 680.321053
-99.430786 -290.874573 681.105988
-101.009425 -291.818912 681.890923
-102.588064 -292.763251 682.675858
-104.166703 -293.707590 683.460794
-105.745341 -294.651929 684.245729
-107.323980 -295.596269 685.030664
-108.902619 -296.540608 685.815599
-110.481258 -297.484947 686.600534
-112.059896 -298.429286 687.385469
-113.638535 -299.373625 688.170405
-115.217174 -300.317964 688.955340
-116.795813 -301.262304 689.740275
-118.374451 -302.206643 690.525210
-119.953090 -303.150982 691.310145
-121.531729 -304.095321 692.095080
-123.110368 -305.039660 692.880016
-124.689006 -305.983999 693.664951
-126.267645 -306.928339 694.449886
-127.846284 -307.872678 695.234821
-129.424923 -308.817017 696.019756
-131.003561 -309.761356 696.804691
-132.582200 -310.705695 697.589627
-134.160839 -311.650035 698.374562
-135.739478 -312.594374 699.159497
-137.318116 -313.538713 699.944432
-138.896755 -314.483052 700.729367
-140.475394 -315.427391 701.514302
-142.054033 -316.371730 702.299238
-143.632671 -317.316070 703.084173
-145.211310 -318.260409 703.869108
-146.789949 -319.204748 704.654043
-148.368588 -320.149087 705.438978
-149.947226 -321.093426 706.223913
-151.525865 -322.037765 707.008849
-153.104504 -322.982105 707.793784
-154.683143 -323.926444 708.578719
-156.261781 -324.870783 709.363654
-157.840420 -325.815122 710.148589
-159.419059 -326.759461 710.933524
-160.997698 -327.703800 711.718460
-162.576336 -328.648140 712.503395
-164.154975 -329.592479 713.288330
-165.733614 -330.536818 714.073265
-167.312253 -331.481157 714.858200
-168.890891 -332.425496 715.643135
-170.469530 -333.369836 716.428071
-172.048169 -334.314175 717.213006
-173.626808 -335.258514 717.997941
-175.205446 -336.202853 718.782876
-176.784085 -337.147192 719.567811
-178.362724 -338.091531 720.352746
-179.941363 -339.035871 721.137682
-181.520001 -339.980210 721.922617
-183.098640 -340.924549 722.707552
-184.677279 -341.868888 723.492487
-186.255918 -342.813227 724.277422
-187.834556 -343.757566 725.062357
-189.413195 -344.701906 725.847293
-190.991834 -345.646245 726.632228
-192.570473 -346.590584 727.417163
-194.149112 -347.534923 728.202098
-195.727750 -348.479262 728.987033
-197.306389 -349.423602 729.771968
-198.885028 -350.367941 730.556904
-200.463667 -351.312280 731.341839
-202.042305 -352.256619 732.126774
-203.620944 -353.200958 732.911709
-205.199583 -354.145297 733.696644
-206.778222 -355.089637 734.481579
-208.356860 -356.033976 735.266515
-209.935499 -356.978315 736.051450
-211.514138 -357.922654 736.836385
-213.092777 -358.866993 737.621320
-214.671415 -359.811332 738.406255
-216.250054 -360.755672 739.191190
-217.828693 -361.700011 739.976126
-219.407332 -362.644350 740.761061
-220.985970 -363.588689 741.545996
-222.564609 -364.533028 742.330931
-224.143248 -365.477367 743.115866
-225.721887 -366.421707 743.900801
-227.300525 -367.366046 744.685737
-228.879164 -368.310385 745.470672
-230.457803 -369.254724 746.255607
-232.036442 -370.199063 747.040542
-233.615080 -371.143403 747.825477
-235.193719 -372.087742 748.610412
-236.772358 -373.032081 749.395348
-238.350997 -373.976420 750.180283
-239.929635 -374.920759 750.965218
-241.508274 -375.865098 751.750153
-243.086913 -376.809438 752.535088
-244.665552 -377.753777 753.320023
-246.244190 -378.698116 754.104959
-247.822829 -379.642455 754.889894
-249.401468 -380.586794 755.674829
-250.980107 -381.531133 756.459764
-252.558745 -382.475473 757.244699
-254.137384 -383.419812 758.029634
-255.716023 -384.364151 758.814570
-257.294662 -385.308490 759.599505
-258.873300 -386.252829 760.384440
-260.451939 -387.197169 761.169375
-262.030578 -388.141508 761.954310
-263.609217 -389.085847 762.739245
-265.187855 -390.030186 763.524181
-266.766494 -390.974525 764.309116
-268.345133 -391.918864 765.094051
-269.923772 -392.863204 765.878986
-271.502410 -393.807543 766.663921
-273.081049 -394.751882 767.448856
-274.659688 -395.696221 768.233792
-276.238327 -396.640560 769.018727
-277.816965 -397.584899 769.803662
-279.395604 -398.529239 770.588597
-280.974243 -399.473578 771.373532
-282.552882 -400.417917 772.158467
-284.131520 -401.362256 772.943403
-285.710159 -402.306595 773.728338
-287.288798 -403.250934 774.513273
-288.867437 -404.195274 775.298208
-290.446075 -405.139613 776.083143
-292.024714 -406.083952 776.868078
-293.603353 -407.028291 777.653014
-295.181992 -407.972630 778.437949
-296.760630 -408.916970 779.222884
-298.339269 -409.861309 780.007819
-299.917908 -410.805648 780.792754
-301.496547 -411.749987 781.577689
-303.075185 -412.694326 782.362625
-304.653824 -413.638665 783.147560
-306.232463 -414.583005 783.932495
-307.811102 -415.527344 784.717430
-309.389740 -416.471683 785.502365
-310.968379 -417.416022 786.287300
-312.547018 -418.360361 787.072236
-314.125657 -419.304700 787.857171
-315.704295 -420.249040 788.642106
-317.282934 -421.193379 789.427041
-318.861573 -422.137718 790.211976
-320.440212 -423.082057 790.996911
-322.018850 -424.026396 791.781847
-323.597489 -424.970736 792.566782
-325.176128 -425.915075 793.351717
-326.754767 -426.859414 794.136652
-328.333405 -427.803753 794.921587
-329.912044 -428.748092 795.706522
-331.490683 -429.692431 796.491458
-333.069322 -430.636771 797.276393
-334.647960 -431.581110 798.061328
-336.226599 -432.525449 798.846263
-337.805238 -433.469788 799.631198
-339.383877 -434.414127 800.416133
-340.962515 -435.358466 801.201069
-342.541154 -436.302806 801.986004
-344.119793 -437.247145 802.770939
-345.698432 -438.191484 803.555874
-347.277070 -439.135823 804.340809
-348.855709 -440.080162 805.125744
-350.434348 -441.024501 805.910680
-352.012987 -441.968841 806.695615
-353.591625 -442.913180 807.480550
-355.170264 -443.857519 808.265485
-356.748903 -444.801858 809.050420
-358.327542 -445.746197 809.835355
-359.906180 -446.690537 810.620291
-361.484819 -447.634876 811.405226
-363.063458 -448.579215 812.190161
-364.642097 -449.523554 812.975096
-366.220735 -450.467893 813.760031
-367.799374 -451.412232 814.544966
-369.378013 -452.356572 815.329902
-370.956652 -453.300911 816.114837
-372.535290 -454.245250 816.899772
-374.113929 -455.189589 817.684707
-375.692568 -456.133928 818.469642
-377.271207 -457.078267 819.254577
-378.849845 -458.022607 820.039513
-380.428484 -458.966946 820.824448
-382.007123 -459.911285 821.609383
-383.585762 -460.855624 822.394318
-385.164400 -461.799963 823.179253
-386.743039 -462.744303 823.964188
-388.321678 -463.688642 824.749124
-389.900317 -464.632981 825.534059
-391.478955 -465.577320 826.318994
-393.057594 -466.521659 827.103929
-394.636233 -467.465998 827.888864
-396.214872 -468.410338 828.673799
-397.793510 -469.354677 829.458735
-399.372149 -470.299016 830.243670
-400.950788 -471.243355 831.028605
-402.529427 -472.187694 831.813540
-404.108065 -473.132033 832.598475
-405.686704 -474.076373 833.383410
-407.265343 -475.020712 834.168346
-408.843982 -475.965051 834.953281
-410.422620 -476.909390 835.738216
-412.001259 -477.853729 836.523151
-413.579898 -478.798068 837.308086
-415.158537 -479.742408 838.093021
-416.737175 -480.686747 838.877957
-418.315814 -481.631086 839.662892
-419.894453 -482.575425 840.447827
-421.473092 -483.519764 841.232762
-423.051730 -484.464104 842.017697
-424.630369 -485.408443 842.802632
-426.209008 -486.352782 843.587568
-427.787647 -487.297121 844.372503
-429.366285 -488.241460 845.157438
-430.944924 -489.185799 845.942373
-432.523563 -490.130139 846.727308
-434.102202 -491.074478 847.512243
-435.680840 -492.018817 848.297179
-437.259479 -492.963156 849.082114
-438.838118 -493.907495 849.867049
-440.416757 -494.851834 850.651984
-441.995395 -495.796174 851.436919
-443.574034 -496.740513 852.221854
-445.152673 -497.684852 853.006790
-446.731312 -498.629191 853.791725
-448.309950 -499.573530 854.576660
-449.888589 -500.517870 855.361595
-451.467228 -501.462209 856.146530
-453.045867 -502.406548 856.931465
-454.624505 -503.350887 857.716401
-456.203144 -504.295226 858.501336
-457.781783 -505.239565 859.286271
-459.360422 -506.183905 860.071206
-460.939060 -507.128244 860.856141
-462.517699 -508.072583 861.641076
-464.096338 -509.016922 862.426012
-465.674977 -509.961261 863.210947
-467.253615 -510.905600 863.995882
-468.832254 -511.849940 864.780817
-470.410893 -512.794279 865.565752
-471.989532 -513.738618 866.350687
-473.568170 -514.682957 867.135623
-475.146809 -515.627296 867.920558
-476.725448 -516.571635 868.705493
-478.304087 -517.515975 869.490428
-479.882725 -518.460314 870.275363
-481.461364 -519.404653 871.060298
-483.040003 -520.348992 871.845234
-484.618642 -521.293331 872.630169
-486.197280 -522.237671 873.415104
-487.775919 -523.182010 874.200039
-489.354558 -524.126349 874.984974
-490.933197 -525.070688 875.769909
-492.511835 -526.015027 876.554845
-494.090474 -526.959366 877.339780
-495.669113 -527.903706 878.124715
-497.247752 -528.848045 878.909650
-498.826390 -529.792384 879.694585
-500.405029 -530.736723 880.479520
-501.983668 -531.681062 881.264456
-503.562307 -532.625401 882.049391
-505.140946 -533.569741 882.834326
-506.719584 -534.514080 883.619261
-508.298223 -535.458419 884.404196
-509.876862 -536.402758 885.189131
-511.455501 -537.347097 885.974067
-513.034139 -538.291437 886.759002
-514.612778 -539.235776 887.543937
-516.191417 -540.180115 888.328872
-517.770056 -541.124454 889.113807
-519.348694 -542.068793 889.898742
-520.927333 -543.013132 890.683678
-522.505972 -543.957472 891.468613
-524.084611 -544.901811 892.253548
-525.663249 -545.846150 893.038483
-527.241888 -546.790489 893.823418
-528.820527 -547.734828 894.608353
-530.399166 -548.679167 895.393289
-531.977804 -549.623507 896.178224
-533.556443 -550.567846 896.963159
-535.135082 -551.512185 897.748094
-536.713721 -552.456524 898.533029
-538.292359 -553.400863 899.317964
-539.870998 -554.345202 900.102900
-541.449637 -555.289542 900.887835
-543.028276 -556.233881 901.672770
-544.606914 -557.178220 902.457705
-546.185553 -558.122559 903.242640
-547.764192 -559.066898 904.027575
-549.342831 -560.011238 904.812511
-550.921469 -560.955577 905.597446
-552.500108 -561.899916 906.382381
-554.078747 -562.844255 907.167316
-555.657386 -563.788594 907.952251
-557.236024 -564.732933 908.737186
-558.814663 -565.677273 909.522122
-560.393302 -566.621612 910.307057
-561.971941 -567.565951 911.091992
-563.550579 -568.510290 911.876927
-565.129218 -569.454629 912.661862
-566.707857 -570.398968 913.446797
-568.286496 -571.343308 914.231733
-569.865134 -572.287647 915.016668
-571.443773 -573.231986 915.801603
-573.022412 -574.176325 916.586538
-574.601051 -575.120664 917.371473
-576.179689 -576.065004 918.156408
-577.758328 -577.009343 918.941344
-579.336967 -577.953682 919.726279
-580.915606 -578.898021 920.511214
-582.494244 -579.842360 921.296149
-584.072883 -580.786699 922.081084
-585.651522 -581.731039 922.866019
-587.230161 -582.675378 923.650955
-588.808799 -583.619717 924.435890
-590.387438 -584.564056 925.220825
-591.966077 -585.508395 926.005760
-593.544716 -586.452734 926.790695
-595.123354 -587.397074 927.575630
-596.701993 -588.341413 928.360566
-598.280632 -589.285752 929.145501
-599.859271 -590.230091 929.930436
-601.437909 -591.174430 930.715371
-603.016548 -592.118770 931.500306
-604.595187 -593.063109 932.285241
-606.173826 -594.007448 933.070177
-607.752464 -594.951787 933.855112
-609.331103 -595.896126 934.640047
-610.909742 -596.840465 935.424982
-612.488381 -597.784805 936.209917
-614.067019 -598.729144 936.994852
-615.645658 -599.673483 937.779788
-617.224297 -600.617822 938.564723
-618.802936 -601.562161 939.349658
-620.381574 -602.506500 940.134593
-621.960213 -603.450840 940.919528
-623.538852 -604.395179 941.704463
-625.117491 -605.339518 942.489399
-626.696129 -606.283857 943.274334
-628.274768 -607.228196 944.059269
-629.853407 -608.172535 944.844204
-631.432046 -609.116875 945.629139
-633.010684 -610.061214 946.414074
-634.589323 -611.005553 947.199010
-636.167962 -611.949892 947.983945
-637.746601 -612.894231 948.768880
-639.325239 -613.838571 949.553815
-640.903878 -614.782910 950.338750
-642.482517 -615.727249 951.123685
-644.061156 -616.671588 951.908621
-645.639794 -617.615927 952.693556
-647.218433 -618.560266 953.478491
-648.797072 -619.504606 954.263426
-650.375711 -620.448945 955.048361
-651.954349 -621.393284 955.833296
-653.532988 -622.337623 956.618232
-656.311961 -624.000000 958.000000
-656.278209 -625.529651 956.711968
-656.244458 -627.059303 955.423935
-656.210706 -628.588954 954.135903
-656.176955 -630.118605 952.847870
-656.143203 -631.648257 951.559838
-656.109452 -633.177908 950.271805
-656.075700 -634.707559 948.983773
-656.041949 -636.237211 947.695740
-656.008197 -637.766862 946.407708
-655.974446 -639.296513 945.119675
-655.940695 -640.826165 943.831643
-655.906943 -642.355816 942.543611
-655.873192 -643.885467 941.255578
-655.839440 -645.415119 939.967546
-655.805689 -646.944770 938.679513
-655.771937 -648.474422 937.391481
-655.738186 -650.004073 936.103448
-655.704434 -651.533724 934.815416
-655.670683 -653.063376 933.527383
-655.636931 -654.593027 932.239351
-655.603180 -656.122678 930.951318
-655.569428 -657.652330 929.663286
-655.535677 -659.181981 928.375254
-655.501926 -660.711632 927.087221
-655.468174 -662.241284 925.799189
-655.434423 -663.770935 924.511156
-655.400671 -665.300586 923.223124
-655.366920 -666.830238 921.935091
-655.333168 -668.359889 920.647059
-655.299417 -669.889540 919.359026
-655.265665 -671.419192 918.070994
-655.231914 -672.948843 916.782961
-655.198162 -674.478494 915.494929
-655.164411 -676.008146 914.206897
-655.130660 -677.537797 912.918864
-655.096908 -679.067448 911.630832
-655.063157 -680.597100 910.342799
-655.029405 -682.126751 909.054767
-654.995654 -683.656402 907.766734
-654.961902 -685.186054 906.478702
-654.928151 -686.715705 905.190669
-654.894399 -688.245356 903.902637
-654.860648 -689.775008 902.614604
-654.826896 -691.304659 901.326572
-654.793145 -692.834310 900.038540
-654.759393 -694.363962 898.750507
-654.725642 -695.893613 897.462475
-654.691891 -697.423265 896.174442
-654.658139 -698.952916 894.886410
-654.624388 -700.482567 893.598377
-654.590636 -702.012219 892.310345
-654.556885 -703.541870 891.022312
-654.523133 -705.071521 889.734280
-654.489382 -706.601173 888.446247
-654.455630 -708.130824 887.158215
-654.421879 -709.660475 885.870183
-654.388127 -711.190127 884.582150
-654.354376 -712.719778 883.294118
-654.320624 -714.249429 882.006085
-654.286873 -715.779081 880.718053
-654.253122 -717.308732 879.430020
-654.219370 -718.838383 878.141988
-654.185619 -720.368035 876.853955
-654.151867 -721.897686 875.565923
-654.118116 -723.427337 874.277890
-654.084364 -724.956989 872.989858
-654.050613 -726.486640 871.701826
-654.016861 -728.016291 870.413793
-653.983110 -729.545943 869.125761
-653.949358 -731.075594 867.837728
-653.915607 -732.605245 866.549696
-653.881855 -734.134897 865.261663
-653.848104 -735.664548 863.973631
-653.814353 -737.194199 862.685598
-653.780601 -738.723851 861.397566
-653.746850 -740.253502 860.109533
-653.713098 -741.783153 858.821501
-653.679347 -743.312805 857.533469
-653.645595 -744.842456 856.245436
-653.611844 -746.372108 854.957404
-653.578092 -747.901759 853.669371
-653.544341 -749.431410 852.381339
-653.510589 -750.961062 851.093306
-653.476838 -752.490713 849.805274
-653.443086 -754.020364 848.517241
-653.409335 -755.550016 847.229209
-653.375584 -757.079667 845.941176
-653.341832 -758.609318 844.653144
-653.308081 -760.138970 843.365112
-653.274329 -761.668621 842.077079
-653.240578 -763.198272 840.789047
-653.206826 -764.727924 839.501014
-653.173075 -766.257575 838.212982
-653.139323 -767.787226 836.924949
-653.105572 -769.316878 835.636917
-653.071820 -770.846529 834.348884
-653.038069 -772.376180 833.060852
-653.004318 -773.905832 831.772819
-652.970566 -775.435483 830.484787
-652.936815 -776.965134 829.196755
-652.903063 -778.494786 827.908722
-652.869312 -780.024437 826.620690
-652.835560 -781.554088 825.332657
-652.801809 -783.083740 824.044625
-652.768057 -784.613391 822.756592
-652.734306 -786.143042 821.468560
-652.700554 -787.672694 820.180527
-652.666803 -789.202345 818.892495
-652.633051 -790.731996 817.604462
-652.599300 -792.261648 816.316430
-652.565549 -793.791299 815.028397
-652.531797 -795.320951 813.740365
-652.498046 -796.850602 812.452333
-652.464294 -798.380253 811.164300
-652.430543 -799.909905 809.876268
-652.396791 -801.439556 808.588235
-652.363040 -802.969207 807.300203
-652.329288 -804.498859 806.012170
-652.295537 -806.028510 804.724138
-652.261785 -807.558161 803.436105
-652.228034 -809.087813 802.148073
-652.194282 -810.617464 800.860040
-652.160531 -812.147115 799.572008
-652.126780 -813.676767 798.283976
-652.093028 -815.206418 796.995943
-652.059277 -816.736069 795.707911
-652.025525 -818.265721 794.419878
-651.991774 -819.795372 793.131846
-651.958022 -821.325023 791.843813
-651.924271 -822.854675 790.555781
-651.890519 -824.384326 789.267748
-651.856768 -825.913977 787.979716
-651.823016 -827.443629 786.691683
-651.789265 -828.973280 785.403651
-651.755513 -830.502931 784.115619
-651.721762 -832.032583 782.827586
-651.688011 -833.562234 781.539554
-651.654259 -835.091885 780.251521
-651.620508 -836.621537 778.963489
-651.586756 -838.151188 777.675456
-651.553005 -839.680839 776.387424
-651.519253 -841.210491 775.099391
-651.485502 -842.740142 773.811359
-651.451750 -844.269794 772.523326
-651.417999 -845.799445 771.235294
-651.384247 -847.329096 769.947262
-651.350496 -848.858748 768.659229
-651.316744 -850.388399 767.371197
-651.282993 -851.918050 766.083164
-651.249242 -853.447702 764.795132
-651.215490 -854.977353 763.507099
-651.181739 -856.507004 762.219067
-651.147987 -858.036656 760.931034
-651.114236 -859.566307 759.643002
-651.080484 -861.095958 758.354969
-651.046733 -862.625610 757.066937
-651.012981 -864.155261 755.778905
-650.979230 -865.684912 754.490872
-650.945478 -867.214564 753.202840
-650.911727 -868.744215 751.914807
-650.877976 -870.273866 750.626775
-650.844224 -871.803518 749.338742
-650.810473 -873.333169 748.050710
-650.776721 -874.862820 746.762677
-650.742970 -876.392472 745.474645
-650.709218 -877.922123 744.186612
-650.675467 -879.451774 742.898580
-650.641715 -880.981426 741.610548
-650.607964 -882.511077 740.322515
-650.574212 -884.040728 739.034483
-650.540461 -885.570380 737.746450
-650.506709 -887.100031 736.458418
-650.472958 -888.629682 735.170385
-650.439207 -890.159334 733.882353
-650.405455 -891.688985 732.594320
-650.371704 -893.218637 731.306288
-650.337952 -894.748288 730.018255
-650.304201 -896.277939 728.730223
-650.270449 -897.807591 727.442191
-650.236698 -899.337242 726.154158
-650.202946 -900.866893 724.866126
-650.169195 -902.396545 723.578093
-650.135443 -903.926196 722.290061
-650.101692 -905.455847 721.002028
-650.067940 -906.985499 719.713996
-650.034189 -908.515150 718.425963
-650.000438 -910.044801 717.137931
-649.966686 -911.574453 715.849898
-649.932935 -913.104104 714.561866
-649.899183 -914.633755 713.273834
-649.865432 -916.163407 711.985801
-649.831680 -917.693058 710.697769
-649.797929 -919.222709 709.409736
-649.764177 -920.752361 708.121704
-649.730426 -922.282012 706.833671
-649.696674 -923.811663 705.545639
-649.662923 -925.341315 704.257606
-649.629171 -926.870966 702.969574
-649.595420 -928.400617 701.681541
-649.561669 -929.930269 700.393509
-649.527917 -931.459920 699.105477
-649.494166 -932.989571 697.817444
-649.460414 -934.519223 696.529412
-649.426663 -936.048874 695.241379
-649.392911 -937.578525 693.953347
-649.359160 -939.108177 692.665314
-649.325408 -940.637828 691.377282
-649.291657 -942.167480 690.089249
-649.257905 -943.697131 688.801217
-649.224154 -945.226782 687.513184
-649.190402 -946.756434 686.225152
-649.156651 -948.286085 684.937120
-649.122900 -949.815736 683.649087
-649.089148 -951.345388 682.361055
-649.055397 -952.875039 681.073022
-649.021645 -954.404690 679.784990
-648.987894 -955.934342 678.496957
-648.954142 -957.463993 677.208925
-648.920391 -958.993644 675.920892
-648.886639 -960.523296 674.632860
-648.852888 -962.052947 673.344827
-648.819136 -963.582598 672.056795
-648.785385 -965.112250 670.768763
-648.751634 -966.641901 669.480730
-648.717882 -968.171552 668.192698
-648.684131 -969.701204 666.904665
-648.650379 -971.230855 665.616633
-648.616628 -972.760506 664.328600
-648.582876 -974.290158 663.040568
-648.549125 -975.819809 661.752535
-648.515373 -977.349460 660.464503
-648.481622 -978.879112 659.176470
-648.447870 -980.408763 657.888438
-648.414119 -981.938414 656.600406
-648.380367 -983.468066 655.312373
-648.346616 -984.997717 654.024341
-648.312865 -986.527369 652.736308
-648.279113 -988.057020 651.448276
-648.245362 -989.586671 650.160243
-648.211610 -991.116323 648.872211
-648.177859 -992.645974 647.584178
-648.144107 -994.175625 646.296146
-648.110356 -995.705277 645.008113
-648.076604 -997.234928 643.720081
-648.042853 -998.764579 642.432049
-648.009101 -1000.294231 641.144016
-647.975350 -1001.823882 639.855984
-647.941598 -1003.353533 638.567951
-647.907847 -1004.883185 637.279919
-647.874096 -1006.412836 635.991886
-647.840344 -1007.942487 634.703854
-647.806593 -1009.472139 633.415821
-647.772841 -1011.001790 632.127789
-647.739090 -1012.531441 630.839756
-647.705338 -1014.061093 629.551724
-647.671587 -1015.590744 628.263692
-647.637835 -1017.120395 626.975659
-647.604084 -1018.650047 625.687627
-647.570332 -1020.179698 624.399594
-647.536581 -1021.709349 623.111562
-647.502829 -1023.239001 621.823529
-647.469078 -1024.768652 620.535497
-647.435327 -1026.298303 619.247464
-647.401575 -1027.827955 617.959432
-647.367824 -1029.357606 616.671399
-647.334072 -1030.887257 615.383367
-647.300321 -1032.416909 614.095335
-647.266569 -1033.946560 612.807302
-647.232818 -1035.476212 611.519270
-647.199066 -1037.005863 610.231237
-647.165315 -1038.535514 608.943205
-647.131563 -1040.065166 607.655172
-647.097812 -1041.594817 606.367140
-647.064060 -1043.124468 605.079107
-647.030309 -1044.654120 603.791075
-646.996558 -1046.183771 602.503042
-646.962806 -1047.713422 601.215010
-646.929055 -1049.243074 599.926978
-646.895303 -1050.772725 598.638945
-646.861552 -1052.302376 597.350913
-646.827800 -1053.832028 596.062880
-646.794049 -1055.361679 594.774848
-646.760297 -1056.891330 593.486815
-646.726546 -1058.420982 592.198783
-646.692794 -1059.950633 590.910750
-646.659043 -1061.480284 589.622718
-646.625292 -1063.009936 588.334685
-646.591540 -1064.539587 587.046653
-646.557789 -1066.069238 585.758621
-646.524037 -1067.598890 584.470588
-646.490286 -1069.128541 583.182556
-646.456534 -1070.658192 581.894523
-646.422783 -1072.187844 580.606491
-646.389031 -1073.717495 579.318458
-646.355280 -1075.247146 578.030426
-646.321528 -1076.776798 576.742393
-646.287777 -1078.306449 575.454361
-646.254025 -1079.836100 574.166328
-646.220274 -1081.365752 572.878296
-646.186523 -1082.895403 571.590264
-646.152771 -1084.425055 570.302231
-646.119020 -1085.954706 569.014199
-646.085268 -1087.484357 567.726166
-646.051517 -1089.014009 566.438134
-646.017765 -1090.543660 565.150101
-645.984014 -1092.073311 563.862069
-645.950262 -1093.602963 562.574036
-645.916511 -1095.132614 561.286004
-645.882759 -1096.662265 559.997971
-645.849008 -1098.191917 558.709939
-645.815256 -1099.721568 557.421907
-645.781505 -1101.251219 556.133874
-645.747754 -1102.780871 554.845842
-645.714002 -1104.310522 553.557809
-645.680251 -1105.840173 552.269777
-645.646499 -1107.369825 550.981744
-645.612748 -1108.899476 549.693712
-645.578996 -1110.429127 548.405679
-645.545245 -1111.958779 547.117647
-645.511493 -1113.488430 545.829614
-645.477742 -1115.018081 544.541582
-645.443990 -1116.547733 543.253549
-645.410239 -1118.077384 541.965517
-645.376487 -1119.607035 540.677485
-645.342736 -1121.136687 539.389452
-645.308985 -1122.666338 538.101420
-645.275233 -1124.195989 536.813387
-645.241482 -1125.725641 535.525355
-645.207730 -1127.255292 534.237322
-645.173979 -1128.784943 532.949290
-645.140227 -1130.314595 531.661257
-645.106476 -1131.844246 530.373225
-645.072724 -1133.373898 529.085192
-645.038973 -1134.903549 527.797160
-645.005221 -1136.433200 526.509128
-644.971470 -1137.962852 525.221095
-644.937718 -1139.492503 523.933063
-644.903967 -1141.022154 522.645030
-644.870216 -1142.551806 521.356998
-644.836464 -1144.081457 520.068965
-644.802713 -1145.611108 518.780933
-644.768961 -1147.140760 517.492900
-644.735210 -1148.670411 516.204868
-644.701458 -1150.200062 514.916835
-644.667707 -1151.729714 513.628803
-644.633955 -1153.259365 512.340771
-644.600204 -1154.789016 511.052738
-644.566452 -1156.318668 509.764706
-644.532701 -1157.848319 508.476673
-644.498950 -1159.377970 507.188641
-644.465198 -1160.907622 505.900608
-644.431447 -1162.437273 504.612576
-644.397695 -1163.966924 503.324543
-644.363944 -1165.496576 502.036511
-644.330192 -1167.026227 500.748478
-644.296441 -1168.555878 499.460446
-644.262689 -1170.085530 498.172414
-644.228938 -1171.615181 496.884381
-644.195186 -1173.144832 495.596349
-644.161435 -1174.674484 494.308316
-644.127683 -1176.204135 493.020284
-644.093932 -1177.733786 491.732251
-644.060181 -1179.263438 490.444219
-644.026429 -1180.793089 489.156186
-643.992678 -1182.322741 487.868154
-643.958926 -1183.852392 486.580121
-643.925175 -1185.382043 485.292089
-643.891423 -1186.911695 484.004057
-643.857672 -1188.441346 482.716024
-643.823920 -1189.970997 481.427992
-643.790169 -1191.500649 480.139959
-643.756417 -1193.030300 478.851927
-643.722666 -1194.559951 477.563894
-643.688914 -1196.089603 476.275862
-643.655163 -1197.619254 474.987829
-643.621412 -1199.148905 473.699797
-643.587660 -1200.678557 472.411764
-643.553909 -1202.208208 471.123732
-643.520157 -1203.737859 469.835700
-643.486406 -1205.267511 468.547667
-643.452654 -1206.797162 467.259635
-643.418903 -1208.326813 465.971602
-643.385151 -1209.856465 464.683570
-643.351400 -1211.386116 463.395537
-643.317648 -1212.915767 462.107505
-643.283897 -1214.445419 460.819472
-643.250145 -1215.975070 459.531440
-643.216394 -1217.504721 458.243407
-643.182643 -1219.034373 456.955375
-643.148891 -1220.564024 455.667343
-643.115140 -1222.093675 454.379310
-643.081388 -1223.623327 453.091278
-643.047637 -1225.152978 451.803245
-643.013885 -1226.682629 450.515213
-642.980134 -1228.212281 449.227180
-642.946382 -1229.741932 447.939148
-642.912631 -1231.271584 446.651115
-642.878879 -1232.801235 445.363083
-642.845128 -1234.330886 444.075050
-642.811376 -1235.860538 442.787018
-642.777625 -1237.390189 441.498986
-642.743874 -1238.919840 440.210953
-642.710122 -1240.449492 438.922921
-642.676371 -1241.979143 437.634888
-642.642619 -1243.508794 436.346856
-642.608868 -1245.038446 435.058823
-642.575116 -1246.568097 433.770791
-642.541365 -1248.097748 432.482758
-642.507613 -1249.627400 431.194726
-642.473862 -1251.157051 429.906693
-642.440110 -1252.686702 428.618661
-642.406359 -1254.216354 427.330629
-642.372608 -1255.746005 426.042596
-642.338856 -1257.275656 424.754564
-642.305105 -1258.805308 423.466531
-642.271353 -1260.334959 422.178499
-642.237602 -1261.864610 420.890466
-642.203850 -1263.394262 419.602434
-642.170099 -1264.923913 418.314401
-642.136347 -1266.453564 417.026369
-642.102596 -1267.983216 415.738336
-642.068844 -1269.512867 414.450304
-642.035093 -1271.042518 413.162272
-642.001341 -1272.572170 411.874239
-641.967590 -1274.101821 410.586207
-641.933839 -1275.631472 409.298174
-641.900087 -1277.161124 408.010142
-641.866336 -1278.690775 406.722109
-641.832584 -1280.220427 405.434077
-641.798833 -1281.750078 404.146044
-641.765081 -1283.279729 402.858012
-641.731330 -1284.809381 401.569979
-641.697578 -1286.339032 400.281947
-641.663827 -1287.868683 398.993915
-641.630075 -1289.398335 397.705882
-641.596324 -1290.927986 396.417850
-641.562572 -1292.457637 395.129817
-641.528821 -1293.987289 393.841785
-641.495070 -1295.516940 392.553752
-641.461318 -1297.046591 391.265720
-641.427567 -1298.576243 389.977687
-641.393815 -1300.105894 388.689655
-641.360064 -1301.635545 387.401622
-641.326312 -1303.165197 386.113590
-641.292561 -1304.694848 384.825558
-641.258809 -1306.224499 383.537525
-641.225058 -1307.754151 382.249493
-641.191306 -1309.283802 380.961460
-641.157555 -1310.813453 379.673428
-641.123803 -1312.343105 378.385395
-641.090052 -1313.872756 377.097363
-641.056301 -1315.402407 375.809330
-641.022549 -1316.932059 374.521298
-640.988798 -1318.461710 373.233265
-640.955046 -1319.991361 371.945233
-640.921295 -1321.521013 370.657201
-640.887543 -1323.050664 369.369168
-640.853792 -1324.580316 368.081136
-640.820040 -1326.109967 366.793103
-640.786289 -1327.639618 365.505071
-640.752537 -1329.169270 364.217038
-640.718786 -1330.698921 362.929006
-640.685034 -1332.228572 361.640973
-640.651283 -1333.758224 360.352941
-640.617532 -1335.287875 359.064908
-640.583780 -1336.817526 357.776876
-640.550029 -1338.347178 356.488844
-640.516277 -1339.876829 355.200811
-640.482526 -1341.406480 353.912779
-640.448774 -1342.936132 352.624746
-640.415023 -1344.465783 351.336714
-640.381271 -1345.995434 350.048681
-640.347520 -1347.525086 348.760649
-640.313768 -1349.054737 347.472616
-640.280017 -1350.584388 346.184584
-640.246266 -1352.114040 344.896551
-640.212514 -1353.643691 343.608519
-640.178763 -1355.173342 342.320487
-640.145011 -1356.702994 341.032454
-640.111260 -1358.232645 339.744422
-640.077508 -1359.762296 338.456389
-640.043757 -1361.291948 337.168357
-640.010005 -1362.821599 335.880324
-639.976254 -1364.351250 334.592292
-639.942502 -1365.880902 333.304259
-639.908751 -1367.410553 332.016227
-639.874999 -1368.940204 330.728194
-639.841248 -1370.469856 329.440162
-639.807497 -1371.999507 328.152130
-639.773745 -1373.529159 326.864097
-639.739994 -1375.058810 325.576065
-639.706242 -1376.588461 324.288032
-639.672491 -1378.118113 323.000000
-639.638739 -1379.647764 321.711967
-639.604988 -1381.177415 320.423935
-639.571236 -1382.707067 319.135902
-639.537485 -1384.236718 317.847870
-639.503733 -1385.766369 316.559837
-639.469982 -1387.296021 315.271805
-639.436230 -1388.825672 313.983773
-639.402479 -1390.355323 312.695740
-639.368728 -1391.884975 311.407708
-639.334976 -1393.414626 310.119675
-639.301225 -1394.944277 308.831643
-639.267473 -1396.473929 307.543610
-639.233722 -1398.003580 306.255578
-639.199970 -1399.533231 304.967545
-639.166219 -1401.062883 303.679513
-639.132467 -1402.592534 302.391480
-639.098716 -1404.122185 301.103448
-639.064964 -1405.651837 299.815416
-639.031213 -1407.181488 298.527383
-638.997461 -1408.711139 297.239351
-638.963710 -1410.240791 295.951318
-638.929959 -1411.770442 294.663286
-638.896207 -1413.300093 293.375253
-638.862456 -1414.829745 292.087221
-638.828704 -1416.359396 290.799188
-638.794953 -1417.889047 289.511156
-638.761201 -1419.418699 288.223123
-638.727450 -1420.948350 286.935091
-638.693698 -1422.478002 285.647059
-638.659947 -1424.007653 284.359026
-638.626195 -1425.537304 283.070994
-638.592444 -1427.066956 281.782961
-638.558692 -1428.596607 280.494929
-638.524941 -1430.126258 279.206896
-638.491190 -1431.655910 277.918864
-638.457438 -1433.185561 276.630831
-638.423687 -1434.715212 275.342799
-638.389935 -1436.244864 274.054766
-638.356184 -1437.774515 272.766734
-638.322432 -1439.304166 271.478702
-638.288681 -1440.833818 270.190669
-638.254929 -1442.363469 268.902637
-638.221178 -1443.893120 267.614604
-638.187426 -1445.422772 266.326572
-638.153675 -1446.952423 265.038539
-638.119924 -1448.482074 263.750507
-638.086172 -1450.011726 262.462474
-638.052421 -1451.541377 261.174442
-638.018669 -1453.071028 259.886409
-637.984918 -1454.600680 258.598377
-637.951166 -1456.130331 257.310344
-637.917415 -1457.659982 256.022312
-637.883663 -1459.189634 254.734280
-637.849912 -1460.719285 253.446247
-637.816160 -1462.248936 252.158215
-637.782409 -1463.778588 250.870182
-637.748657 -1465.308239 249.582150
-637.714906 -1466.837890 248.294117
-637.681155 -1468.367542 247.006085
-637.647403 -1469.897193 245.718052
-637.613652 -1471.426845 244.430020
-637.579900 -1472.956496 243.141987
-637.546149 -1474.486147 241.853955
-637.512397 -1476.015799 240.565923
-637.478646 -1477.545450 239.277890
-637.444894 -1479.075101 237.989858
-637.411143 -1480.604753 236.701825
-637.377391 -1482.134404 235.413793
-637.343640 -1483.664055 234.125760
-637.309888 -1485.193707 232.837728
-637.276137 -1486.723358 231.549695
-637.242386 -1488.253009 230.261663
-637.208634 -1489.782661 228.973630
-637.174883 -1491.312312 227.685598
-637.141131 -1492.841963 226.397566
-637.107380 -1494.371615 225.109533
-637.073628 -1495.901266 223.821501
-637.039877 -1497.430917 222.533468
-637.006125 -1498.960569 221.245436
-636.972374 -1500.490220 219.957403
-636.938622 -1502.019871 218.669371
-636.904871 -1503.549523 217.381338
-636.871119 -1505.079174 216.093306
-636.837368 -1506.608825 214.805273
-636.803617 -1508.138477 213.517241
-636.769865 -1509.668128 212.229209
-636.736114 -1511.197779 210.941176
-636.702362 -1512.727431 209.653144
-636.668611 -1514.257082 208.365111
-636.634859 -1515.786733 207.077079
-636.601108 -1517.316385 205.789046
-636.567356 -1518.846036 204.501014
-636.533605 -1520.375688 203.212981
-636.499853 -1521.905339 201.924949
-636.466102 -1523.434990 200.636916
-636.432350 -1524.964642 199.348884
-636.398599 -1526.494293 198.060852
-636.364848 -1528.023944 196.772819
-636.331096 -1529.553596 195.484787
-636.297345 -1531.083247 194.196754
-636.263593 -1532.612898 192.908722
-636.229842 -1534.142550 191.620689
-636.196090 -1535.672201 190.332657
-636.162339 -1537.201852 189.044624
-636.128587 -1538.731504 187.756592
-636.094836 -1540.261155 186.468559
-636.061084 -1541.790806 185.180527
-636.027333 -1543.320458 183.892495
-635.993582 -1544.850109 182.604462
-635.959830 -1546.379760 181.316430
-635.926079 -1547.909412 180.028397
-635.892327 -1549.439063 178.740365
-635.858576 -1550.968714 177.452332
-635.824824 -1552.498366 176.164300
-635.791073 -1554.028017 174.876267
-635.757321 -1555.557668 173.588235
-635.723570 -1557.087320 172.300202
-635.689818 -1558.616971 171.012170
-635.656067 -1560.146622 169.724138
-635.622315 -1561.676274 168.436105
-635.588564 -1563.205925 167.148073
-635.554813 -1564.735576 165.860040
-635.521061 -1566.265228 164.572008
